# .PCD v0.7 - Point Cloud Data file format
VERSION 0.7
FIELDS x y z
SIZE 4 4 4
TYPE F F F
COUNT 1 1 1
WIDTH 1672
HEIGHT 1
VIEWPOINT 0 0 0 1 0 0 0
POINTS 1672
DATA ascii
0.035 -0.34400001 -0.067000002
0.029999999 -0.296 -0.063000001
0.027000001 -0.264 -0.061000001
0.025 -0.25099999 -0.063000001
0.023 -0.227 -0.061000001
0.021 -0.20299999 -0.057999998
1.296 -13.661 1.673
0.94599998 -9.9729996 1.044
0.75 -7.9029999 0.68800002
0.60600001 -6.3759999 0.44299999
0.51300001 -5.3839998 0.28
0.44299999 -4.6479998 0.161
0.39399999 -4.1290002 0.071000002
0.35600001 -3.727 -0
0.32699999 -3.4159999 -0.059999999
0.30199999 -3.152 -0.11
0.27700001 -2.891 -0.152
0.25799999 -2.681 -0.18799999
0.241 -2.503 -0.219
0.226 -2.3440001 -0.24699999
0.212 -2.197 -0.27000001
0.2 -2.0739999 -0.292
0.19 -1.966 -0.31200001
0.043000001 -0.447 -0.079000004
0.033 -0.34 -0.066
0.029999999 -0.30399999 -0.064999998
0.026000001 -0.27200001 -0.063000001
0.023 -0.23999999 -0.059999999
0.023 -0.23800001 -0.064000003
0.02 -0.199 -0.057
1.25 -13.626 1.668
0.91399997 -9.9680004 1.044
0.72500002 -7.9089999 0.68900001
0.58700001 -6.3899999 0.44400001
0.495 -5.382 0.28
0.428 -4.6459999 0.161
0.382 -4.138 0.071000002
0.345 -3.7279999 -0
0.31600001 -3.4170001 -0.059999999
0.29100001 -3.145 -0.11
0.26899999 -2.9000001 -0.152
0.25 -2.6860001 -0.18799999
0.23199999 -2.5 -0.219
0.21799999 -2.3410001 -0.24600001
0.205 -2.2019999 -0.27000001
0.19499999 -2.0829999 -0.29300001
0.184 -1.967 -0.31200001
0.041999999 -0.44299999 -0.078000002
0.032000002 -0.34 -0.066
0.028999999 -0.30399999 -0.064999998
0.025 -0.25999999 -0.059999999
0.023 -0.243 -0.061000001
0.022 -0.227 -0.061000001
0.02 -0.211 -0.061000001
1.206 -13.625 1.6670001
0.88200003 -9.967 1.043
0.70099998 -7.9190001 0.68900001
0.56699997 -6.3959999 0.44499999
0.479 -5.3839998 0.28
0.414 -4.6469998 0.161
0.368 -4.1350002 0.071000002
0.333 -3.7290001 -0
0.30599999 -3.4260001 -0.059999999
0.28200001 -3.1500001 -0.11
0.259 -2.892 -0.152
0.241 -2.6830001 -0.18799999
0.22400001 -2.5 -0.219
0.211 -2.346 -0.24699999
0.199 -2.2030001 -0.27000001
0.18700001 -2.075 -0.292
0.178 -1.9680001 -0.31200001
0.041000001 -0.447 -0.079000004
0.030999999 -0.34 -0.066
0.027000001 -0.292 -0.061999999
0.025 -0.27599999 -0.064000003
0.023 -0.255 -0.064000003
0.022 -0.235 -0.063000001
0.02 -0.21799999 -0.063000001
1.164 -13.633 1.668
0.85100001 -9.9689999 1.043
0.67699999 -7.9250002 0.69
0.54699999 -6.3930001 0.44400001
0.46200001 -5.3889999 0.28
0.40000001 -4.652 0.161
0.35600001 -4.1440001 0.071000002
0.32100001 -3.7260001 -0
0.294 -3.4189999 -0.059999999
0.27200001 -3.154 -0.11
0.25099999 -2.901 -0.152
0.233 -2.687 -0.18799999
0.21699999 -2.5009999 -0.219
0.20299999 -2.3380001 -0.24600001
0.192 -2.2030001 -0.27000001
0.18099999 -2.076 -0.292
0.171 -1.964 -0.31099999
0.039000001 -0.45100001 -0.079999998
0.028999999 -0.329 -0.064000003
0.026000001 -0.292 -0.061999999
0.024 -0.26800001 -0.061999999
0.021 -0.244 -0.061000001
0.02 -0.227 -0.061000001
0.018999999 -0.214 -0.061999999
1.122 -13.649 1.669
0.81900001 -9.96 1.0420001
0.65100002 -7.915 0.68900001
0.52899998 -6.415 0.44600001
0.44600001 -5.3979998 0.28099999
0.38499999 -4.6490002 0.161
0.34299999 -4.1409998 0.071000002
0.31 -3.7390001 -0
0.28400001 -3.428 -0.059999999
0.26100001 -3.1429999 -0.11
0.241 -2.898 -0.152
0.22400001 -2.684 -0.18799999
0.20900001 -2.51 -0.219
0.19599999 -2.3469999 -0.24699999
0.185 -2.204 -0.27000001
0.17399999 -2.076 -0.292
0.16599999 -1.969 -0.31200001
0.037999999 -0.44800001 -0.079000004
0.028999999 -0.34 -0.066
0.026000001 -0.308 -0.064999998
0.023 -0.26800001 -0.061999999
0.021 -0.248 -0.061999999
0.02 -0.235 -0.063000001
0.017999999 -0.211 -0.061000001
1.0779999 -13.636 1.6670001
0.78500003 -9.9309998 1.039
0.62599999 -7.914 0.68800002
0.509 -6.4200001 0.44600001
0.428 -5.3959999 0.28099999
0.37 -4.651 0.161
0.329 -4.138 0.071000002
0.29800001 -3.74 -0
0.273 -3.425 -0.059999999
0.252 -3.152 -0.11
0.233 -2.9070001 -0.153
0.21600001 -2.6930001 -0.18799999
0.20100001 -2.5020001 -0.219
0.18799999 -2.3399999 -0.24600001
0.178 -2.2079999 -0.271
0.168 -2.0810001 -0.292
0.15899999 -1.965 -0.31099999
0.035999998 -0.44 -0.078000002
0.028000001 -0.34400001 -0.067000002
0.025 -0.308 -0.064999998
0.021 -0.25999999 -0.059999999
0.021 -0.25099999 -0.063000001
0.017999999 -0.21600001 -0.057999998
0.017999999 -0.215 -0.061999999
1.035 -13.636 1.6670001
0.75400001 -9.9289999 1.038
0.602 -7.927 0.68900001
0.48800001 -6.4180002 0.44600001
0.412 -5.4050002 0.28099999
0.35600001 -4.6560001 0.161
0.31600001 -4.1389999 0.071000002
0.28600001 -3.737 -0
0.26300001 -3.437 -0.059999999
0.242 -3.1530001 -0.11
0.223 -2.9030001 -0.152
0.207 -2.6849999 -0.18799999
0.19400001 -2.5109999 -0.219
0.18099999 -2.3440001 -0.24600001
0.171 -2.2090001 -0.271
0.162 -2.085 -0.29300001
0.153 -1.97 -0.31200001
0.035999998 -0.456 -0.079999998
0.027000001 -0.345 -0.067000002
0.024 -0.308 -0.064999998
0.022 -0.27599999 -0.064000003
0.018999999 -0.248 -0.061999999
0.017999999 -0.227 -0.061000001
0.016000001 -0.207 -0.059999999
0.99299997 -13.655 1.669
0.72299999 -9.9440002 1.039
0.57800001 -7.9489999 0.69099998
0.46799999 -6.4200001 0.44600001
0.39399999 -5.3940001 0.28
0.34099999 -4.6529999 0.161
0.30399999 -4.1479998 0.071000002
0.27500001 -3.7460001 -0
0.25299999 -3.4460001 -0.059999999
0.23199999 -3.1500001 -0.11
0.214 -2.9000001 -0.152
0.199 -2.6900001 -0.18799999
0.185 -2.5079999 -0.219
0.17399999 -2.345 -0.24600001
0.164 -2.2090001 -0.271
0.155 -2.082 -0.292
0.147 -1.97 -0.31200001
0.033 -0.44400001 -0.078000002
0.026000001 -0.34099999 -0.066
0.022 -0.29300001 -0.061999999
0.02 -0.26800001 -0.061999999
0.018999999 -0.248 -0.061999999
0.017000001 -0.227 -0.061000001
0.017000001 -0.222 -0.064000003
0.94999999 -13.654 1.668
0.69099998 -9.9259996 1.0369999
0.55299997 -7.9510002 0.69099998
0.449 -6.4330001 0.447
0.377 -5.3959999 0.28
0.32499999 -4.6420002 0.16
0.29100001 -4.145 0.071000002
0.26300001 -3.747 -0
0.243 -3.4590001 -0.061000001
0.222 -3.154 -0.11
0.205 -2.8970001 -0.152
0.191 -2.6949999 -0.18799999
0.178 -2.5079999 -0.219
0.16599999 -2.345 -0.24600001
0.15800001 -2.214 -0.271
0.149 -2.082 -0.292
0.141 -1.967 -0.31099999
0.032000002 -0.44800001 -0.079000004
0.024 -0.33700001 -0.064999998
0.021 -0.289 -0.061000001
0.018999999 -0.26800001 -0.061999999
0.017999999 -0.25600001 -0.064000003
0.017000001 -0.23899999 -0.064000003
0.015 -0.211 -0.061000001
0.90600002 -13.641 1.666
0.66000003 -9.9359999 1.038
0.52899998 -7.961 0.69199997
0.428 -6.4299998 0.44600001
0.36000001 -5.3889999 0.28
0.31099999 -4.651 0.161
0.278 -4.1500001 0.071000002
0.252 -3.7520001 -0
0.23199999 -3.4519999 -0.059999999
0.212 -3.155 -0.11
0.19599999 -2.901 -0.152
0.182 -2.6949999 -0.18799999
0.17 -2.513 -0.219
0.15899999 -2.346 -0.24600001
0.15000001 -2.2060001 -0.27000001
0.142 -2.0869999 -0.29300001
0.13500001 -1.971 -0.31200001
0.029999999 -0.43599999 -0.077
0.024 -0.35699999 -0.068999998
0.021 -0.301 -0.064000003
0.017999999 -0.26100001 -0.059999999
0.017000001 -0.248 -0.061999999
0.016000001 -0.22400001 -0.059999999
0.014 -0.20299999 -0.057999998
0.86400002 -13.663 1.669
0.62800002 -9.9259996 1.0369999
0.50400001 -7.9699998 0.69300002
0.40900001 -6.448 0.447
0.34299999 -5.3899999 0.28
0.29699999 -4.6599998 0.161
0.26499999 -4.1589999 0.071999997
0.23999999 -3.7479999 -0
0.221 -3.4519999 -0.059999999
0.20299999 -3.1600001 -0.11
0.18700001 -2.902 -0.152
0.17299999 -2.688 -0.18799999
0.162 -2.517 -0.22
0.152 -2.346 -0.24600001
0.14300001 -2.211 -0.271
0.13600001 -2.0869999 -0.29300001
0.12899999 -1.971 -0.31200001
0.028999999 -0.44 -0.078000002
0.023 -0.345 -0.067000002
0.021 -0.31200001 -0.066
0.017999999 -0.26800001 -0.061999999
0.017000001 -0.25600001 -0.064000003
0.015 -0.227 -0.061000001
0.014 -0.211 -0.061000001
0.82099998 -13.662 1.668
0.597 -9.9320002 1.0369999
0.479 -7.9640002 0.69199997
0.389 -6.4489999 0.447
0.32600001 -5.3909998 0.28
0.28200001 -4.6570001 0.161
0.252 -4.1560001 0.071999997
0.228 -3.757 -0
0.20999999 -3.461 -0.061000001
0.193 -3.1600001 -0.11
0.178 -2.9070001 -0.152
0.16500001 -2.688 -0.18799999
0.154 -2.51 -0.219
0.145 -2.3510001 -0.24699999
0.13600001 -2.211 -0.271
0.12899999 -2.0880001 -0.29300001
0.122 -1.972 -0.31200001
0.027000001 -0.43599999 -0.077
0.022 -0.35299999 -0.068000004
0.018999999 -0.30500001 -0.064999998
0.017000001 -0.26499999 -0.061000001
0.016000001 -0.25600001 -0.064000003
0.015 -0.23100001 -0.061999999
0.013 -0.207 -0.059999999
0.77600002 -13.625 1.663
0.565 -9.9259996 1.0369999
0.454 -7.9689999 0.69199997
0.36899999 -6.4580002 0.44800001
0.30899999 -5.3920002 0.28
0.26800001 -4.6620002 0.161
0.23899999 -4.1570001 0.071999997
0.21699999 -3.7579999 -0
0.2 -3.4619999 -0.061000001
0.183 -3.1570001 -0.11
0.169 -2.9070001 -0.152
0.15700001 -2.697 -0.18799999
0.146 -2.5139999 -0.219
0.138 -2.359 -0.24699999
0.12899999 -2.2119999 -0.271
0.122 -2.0799999 -0.292
0.116 -1.976 -0.31200001
0.027000001 -0.46000001 -0.081
0.02 -0.34099999 -0.066
0.017000001 -0.29300001 -0.061999999
0.016000001 -0.27200001 -0.063000001
0.015 -0.244 -0.061000001
0.013 -0.22400001 -0.059999999
0.013 -0.223 -0.064000003
0.73299998 -13.623 1.663
0.53399998 -9.9280005 1.0369999
0.42899999 -7.9780002 0.69300002
0.34900001 -6.4590001 0.44800001
0.292 -5.3969998 0.28
0.25299999 -4.6620002 0.161
0.226 -4.165 0.071999997
0.205 -3.7539999 -0
0.189 -3.4660001 -0.061000001
0.17299999 -3.161 -0.11
0.16 -2.9159999 -0.153
0.148 -2.6930001 -0.18799999
0.138 -2.5109999 -0.219
0.13 -2.348 -0.24600001
0.123 -2.2160001 -0.271
0.116 -2.0840001 -0.292
0.11 -1.976 -0.31200001
0.024 -0.433 -0.075999998
0.02 -0.35299999 -0.068000004
0.016000001 -0.29300001 -0.061999999
0.015 -0.26499999 -0.061000001
0.015 -0.25999999 -0.064999998
0.013 -0.235 -0.063000001
0.012 -0.207 -0.059999999
0.69 -13.63 1.663
0.50300002 -9.9209995 1.036
0.405 -7.9879999 0.69400001
0.329 -6.4640002 0.44800001
0.27500001 -5.3860002 0.28
0.23899999 -4.6669998 0.161
0.213 -4.158 0.071999997
0.193 -3.763 -0
0.178 -3.471 -0.061000001
0.163 -3.1619999 -0.11
0.15000001 -2.908 -0.152
0.14 -2.6900001 -0.18799999
0.131 -2.5190001 -0.22
0.122 -2.352 -0.24699999
0.116 -2.2119999 -0.271
0.109 -2.085 -0.292
0.104 -1.973 -0.31200001
0.024 -0.44800001 -0.079000004
0.017999999 -0.34900001 -0.068000004
0.016000001 -0.30899999 -0.064999998
0.014 -0.26899999 -0.061999999
0.013 -0.244 -0.061000001
0.013 -0.235 -0.063000001
0.012 -0.215 -0.061999999
0.648 -13.644 1.665
0.472 -9.9350004 1.0369999
0.38 -7.9970002 0.69400001
0.308 -6.4689999 0.44800001
0.25799999 -5.395 0.28
0.22400001 -4.6719999 0.161
0.2 -4.1669998 0.071999997
0.18099999 -3.76 -0
0.167 -3.467 -0.061000001
0.153 -3.1659999 -0.11
0.141 -2.9130001 -0.153
0.131 -2.698 -0.18799999
0.123 -2.5150001 -0.219
0.115 -2.352 -0.24699999
0.109 -2.217 -0.271
0.103 -2.085 -0.292
0.097999997 -1.977 -0.31200001
0.022 -0.45300001 -0.079999998
0.017000001 -0.34099999 -0.066
0.014 -0.285 -0.061000001
0.014 -0.273 -0.063000001
0.013 -0.252 -0.063000001
0.011 -0.22400001 -0.059999999
0.011 -0.211 -0.061000001
0.60500002 -13.649 1.665
0.44100001 -9.9320002 1.0369999
0.354 -7.9860001 0.69300002
0.28799999 -6.474 0.449
0.241 -5.395 0.28
0.20900001 -4.665 0.161
0.18700001 -4.1669998 0.071999997
0.17 -3.7679999 -0
0.156 -3.4679999 -0.061000001
0.14399999 -3.1789999 -0.111
0.132 -2.9130001 -0.153
0.123 -2.6949999 -0.18799999
0.115 -2.516 -0.219
0.108 -2.3570001 -0.24699999
0.102 -2.2130001 -0.271
0.096000001 -2.0810001 -0.292
0.092 -1.977 -0.31200001
0.021 -0.45300001 -0.079999998
0.016000001 -0.33700001 -0.064999998
0.014 -0.30500001 -0.064999998
0.013 -0.26899999 -0.061999999
0.012 -0.252 -0.063000001
0.0099999998 -0.22 -0.059
0.0099999998 -0.204 -0.057999998
0.56300002 -13.663 1.6670001
0.41 -9.9460001 1.038
0.329 -7.9910002 0.69400001
0.26800001 -6.4749999 0.449
0.22400001 -5.3959999 0.28
0.19499999 -4.6729999 0.161
0.17399999 -4.1719999 0.071999997
0.15800001 -3.7650001 -0
0.146 -3.48 -0.061000001
0.134 -3.1830001 -0.111
0.123 -2.9130001 -0.153
0.115 -2.7030001 -0.189
0.107 -2.516 -0.219
0.101 -2.3610001 -0.24699999
0.094999999 -2.217 -0.271
0.090000004 -2.086 -0.292
0.085000001 -1.978 -0.31200001
0.018999999 -0.449 -0.079000004
0.015 -0.34099999 -0.066
0.013 -0.29699999 -0.063000001
0.012 -0.28 -0.064999998
0.011 -0.252 -0.063000001
0.0099999998 -0.22 -0.059
0.0089999996 -0.204 -0.057999998
0.52100003 -13.681 1.669
0.375 -9.8629999 1.029
0.30399999 -7.9759998 0.69199997
0.248 -6.4759998 0.449
0.207 -5.401 0.28
0.18000001 -4.6739998 0.161
0.161 -4.1719999 0.071999997
0.146 -3.7650001 -0
0.13500001 -3.477 -0.061000001
0.124 -3.188 -0.111
0.114 -2.914 -0.153
0.106 -2.6949999 -0.18799999
0.098999999 -2.52 -0.22
0.093000002 -2.3529999 -0.24699999
0.088 -2.2179999 -0.271
0.082999997 -2.0899999 -0.29300001
0.079000004 -1.974 -0.31200001
0.017999999 -0.449 -0.079000004
0.014 -0.34900001 -0.068000004
0.012 -0.301 -0.064000003
0.011 -0.27700001 -0.064000003
0.0099999998 -0.244 -0.061000001
0.0089999996 -0.22400001 -0.059999999
0.0089999996 -0.219 -0.063000001
0.477 -13.659 1.666
0.32699999 -9.3710003 0.97799999
0.27900001 -7.9770002 0.69199997
0.228 -6.4879999 0.44999999
0.191 -5.4050002 0.28
0.16599999 -4.6820002 0.162
0.148 -4.1729999 0.071999997
0.134 -3.77 -0
0.124 -3.4690001 -0.061000001
0.114 -3.1760001 -0.111
0.105 -2.914 -0.153
0.097999997 -2.7079999 -0.189
0.090999998 -2.513 -0.219
0.086000003 -2.362 -0.24699999
0.081 -2.2179999 -0.271
0.077 -2.0899999 -0.29300001
0.072999999 -1.978 -0.31200001
0.016000001 -0.44100001 -0.078000002
0.013 -0.345 -0.067000002
0.011 -0.29300001 -0.061999999
0.0099999998 -0.26100001 -0.059999999
0.0089999996 -0.23999999 -0.059999999
0.0089999996 -0.228 -0.061000001
0.0080000004 -0.207 -0.059999999
0.29699999 -9.342 1.1390001
0.29699999 -9.3369999 0.97399998
0.25400001 -7.9819999 0.69300002
0.207 -6.4850001 0.449
0.17399999 -5.4060001 0.28
0.15099999 -4.6830001 0.162
0.13500001 -4.177 0.071999997
0.123 -3.7780001 -0
0.113 -3.4779999 -0.061000001
0.104 -3.184 -0.111
0.096000001 -2.914 -0.153
0.089000002 -2.704 -0.189
0.082999997 -2.5209999 -0.22
0.078000002 -2.3540001 -0.24699999
0.074000001 -2.2179999 -0.271
0.07 -2.086 -0.292
0.066 -1.971 -0.31099999
0.015 -0.449 -0.079000004
0.012 -0.34900001 -0.068000004
0.011 -0.30899999 -0.064999998
0.0089999996 -0.26499999 -0.061000001
0.0089999996 -0.25600001 -0.064000003
0.0080000004 -0.23199999 -0.061999999
0.0080000004 -0.215 -0.061999999
0.26699999 -9.3269997 1.137
0.26699999 -9.3260002 0.97299999
0.229 -7.9829998 0.69300002
0.18700001 -6.4899998 0.44999999
0.15700001 -5.4180002 0.28099999
0.13699999 -4.6830001 0.162
0.122 -4.1820002 0.071999997
0.111 -3.7739999 -0
0.102 -3.4779999 -0.061000001
0.093999997 -3.1930001 -0.111
0.086999997 -2.915 -0.153
0.081 -2.7 -0.18799999
0.075000003 -2.5209999 -0.22
0.071000002 -2.3540001 -0.24699999
0.067000002 -2.2219999 -0.27200001
0.064000003 -2.095 -0.29300001
0.059999999 -1.975 -0.31200001
0.013 -0.42500001 -0.075000003
0.0099999998 -0.33399999 -0.064999998
0.0089999996 -0.30500001 -0.064999998
0.0080000004 -0.257 -0.059
0.0080000004 -0.252 -0.063000001
0.0070000002 -0.228 -0.061000001
0.0070000002 -0.215 -0.061999999
0.23800001 -9.3240004 1.137
0.23800001 -9.3219995 0.972
0.204 -8.0030003 0.69400001
0.167 -6.5019999 0.44999999
0.14 -5.4229999 0.28099999
0.122 -4.6880002 0.162
0.109 -4.1859999 0.071999997
0.098999999 -3.779 -0
0.090999998 -3.4820001 -0.061000001
0.083999999 -3.197 -0.111
0.077 -2.9189999 -0.153
0.071999997 -2.7 -0.18799999
0.068000004 -2.53 -0.221
0.063000001 -2.358 -0.24699999
0.059999999 -2.2190001 -0.271
0.057 -2.099 -0.294
0.054000001 -1.975 -0.31200001
0.012 -0.449 -0.079000004
0.0089999996 -0.34200001 -0.066
0.0080000004 -0.301 -0.064000003
0.0070000002 -0.26499999 -0.061000001
0.0070000002 -0.244 -0.061000001
0.0070000002 -0.23199999 -0.061999999
0.0060000001 -0.215 -0.061999999
0.20900001 -9.3450003 1.1390001
0.20900001 -9.3389997 0.97399998
0.17900001 -7.9920001 0.69300002
0.146 -6.5029998 0.44999999
0.123 -5.4190001 0.28099999
0.107 -4.6919999 0.162
0.096000001 -4.1859999 0.071999997
0.086999997 -3.779 -0
0.079999998 -3.4749999 -0.061000001
0.074000001 -3.197 -0.111
0.068999998 -2.931 -0.153
0.064000003 -2.7049999 -0.189
0.059999999 -2.526 -0.22
0.056000002 -2.362 -0.24699999
0.052999999 -2.223 -0.27200001
0.050000001 -2.095 -0.29300001
0.048 -1.983 -0.31299999
0.011 -0.433 -0.075999998
0.0089999996 -0.34900001 -0.068000004
0.0070000002 -0.29300001 -0.061999999
0.0070000002 -0.26499999 -0.061000001
0.0060000001 -0.252 -0.063000001
0.0060000001 -0.228 -0.061000001
0.0049999999 -0.204 -0.057999998
0.26300001 -13.684 1.668
0.182 -9.467 0.98699999
0.153 -7.993 0.69300002
0.126 -6.4949999 0.44999999
0.106 -5.4200001 0.28099999
0.092 -4.6880002 0.162
0.082999997 -4.191 0.071999997
0.075000003 -3.7869999 -0
0.068999998 -3.487 -0.061000001
0.064000003 -3.1930001 -0.111
0.059 -2.927 -0.153
0.055 -2.7090001 -0.189
0.052000001 -2.526 -0.22
0.048999999 -2.359 -0.24699999
0.046 -2.2190001 -0.271
0.044 -2.0910001 -0.29300001
0.041999999 -1.983 -0.31299999
0.0089999996 -0.44100001 -0.078000002
0.0070000002 -0.345 -0.067000002
0.0060000001 -0.29699999 -0.063000001
0.0060000001 -0.257 -0.059
0.0060000001 -0.25600001 -0.064000003
0.0049999999 -0.228 -0.061000001
0.0049999999 -0.215 -0.061999999
0.22 -13.685 1.668
0.16 -9.9329996 1.036
0.12899999 -8.0050001 0.69400001
0.106 -6.5 0.44999999
0.089000002 -5.428 0.28099999
0.078000002 -4.6929998 0.162
0.068999998 -4.1869998 0.071999997
0.064000003 -3.7909999 -0
0.057999998 -3.487 -0.061000001
0.054000001 -3.1900001 -0.111
0.050000001 -2.9360001 -0.154
0.046999998 -2.701 -0.18799999
0.044 -2.526 -0.22
0.041000001 -2.359 -0.24699999
0.039000001 -2.223 -0.27200001
0.037 -2.095 -0.29300001
0.0089999996 -0.47400001 -0.075000003
0.0080000004 -0.43700001 -0.077
0.0060000001 -0.338 -0.064999998
0.0049999999 -0.28999999 -0.061000001
0.0049999999 -0.26499999 -0.061000001
0.0049999999 -0.248 -0.061999999
0.0040000002 -0.23199999 -0.061999999
0.0040000002 -0.215 -0.061999999
0.177 -13.741 1.675
0.12899999 -9.9569998 1.038
0.103 -7.993 0.69300002
0.085000001 -6.5 0.44999999
0.071999997 -5.4359999 0.28200001
0.063000001 -4.697 0.162
0.056000002 -4.1950002 0.071999997
0.052000001 -3.7920001 -0
0.046999998 -3.483 -0.061000001
0.044 -3.2019999 -0.112
0.041000001 -2.944 -0.154
0.037999999 -2.7049999 -0.189
0.035999998 -2.5220001 -0.22
0.034000002 -2.3629999 -0.24699999
0.032000002 -2.223 -0.27200001
0.030999999 -2.099 -0.294
0.028999999 -1.983 -0.31299999
0.0070000002 -0.449 -0.079000004
0.0049999999 -0.34599999 -0.067000002
0.0049999999 -0.301 -0.064000003
0.0040000002 -0.26499999 -0.061000001
0.0040000002 -0.248 -0.061999999
0.0040000002 -0.23199999 -0.061999999
0.0040000002 -0.219 -0.063000001
0.13500001 -13.785 1.6799999
0.097000003 -9.9689999 1.039
0.078000002 -8.0019999 0.69400001
0.064999998 -6.5040002 0.44999999
0.055 -5.4400001 0.28200001
0.048 -4.6929998 0.162
0.043000001 -4.191 0.071999997
0.039999999 -3.796 -0
0.035999998 -3.483 -0.061000001
0.034000002 -3.198 -0.111
0.032000002 -2.944 -0.154
0.029999999 -2.7130001 -0.189
0.028000001 -2.5339999 -0.221
0.026000001 -2.3629999 -0.24699999
0.025 -2.2190001 -0.271
0.024 -2.095 -0.29300001
0.023 -1.979 -0.31200001
0.0049999999 -0.449 -0.079000004
0.0040000002 -0.338 -0.064999998
0.0040000002 -0.29699999 -0.063000001
0.003 -0.257 -0.059
0.003 -0.248 -0.061999999
0.003 -0.22400001 -0.059999999
0.003 -0.2 -0.057
0.090999998 -13.734 1.674
0.066 -9.9700003 1.039
0.052999999 -8.0100002 0.69499999
0.044 -6.5159998 0.45100001
0.037999999 -5.4450002 0.28200001
0.034000002 -4.6929998 0.162
0.029999999 -4.1869998 0.071999997
0.028000001 -3.7880001 -0
0.026000001 -3.487 -0.061000001
0.024 -3.2019999 -0.112
0.023 -2.944 -0.154
0.021 -2.7130001 -0.189
0.02 -2.526 -0.22
0.018999999 -2.3670001 -0.248
0.017999999 -2.227 -0.27200001
0.017999999 -2.096 -0.29300001
0.017000001 -1.979 -0.31200001
0.0040000002 -0.43700001 -0.077
0.003 -0.338 -0.064999998
0.003 -0.28600001 -0.061000001
0.0020000001 -0.25299999 -0.057999998
0.0020000001 -0.248 -0.061999999
0.0020000001 -0.22400001 -0.059999999
0.0020000001 -0.223 -0.064000003
0.048 -13.762 1.677
0.035 -9.9779997 1.04
0.028000001 -8.0100002 0.69499999
0.024 -6.5159998 0.45100001
0.021 -5.4489999 0.28200001
0.018999999 -4.697 0.162
0.017000001 -4.1989999 0.071999997
0.016000001 -3.7920001 -0
0.015 -3.4949999 -0.061000001
0.014 -3.198 -0.111
0.013 -2.944 -0.154
0.013 -2.7130001 -0.189
0.012 -2.526 -0.22
0.012 -2.359 -0.24699999
0.011 -2.223 -0.27200001
0.011 -2.0999999 -0.294
0.011 -1.983 -0.31299999
0.0020000001 -0.42500001 -0.075000003
0.0020000001 -0.34200001 -0.066
0.0020000001 -0.29699999 -0.063000001
0.0020000001 -0.28099999 -0.064999998
0.0020000001 -0.248 -0.061999999
0.0020000001 -0.228 -0.061000001
0.001 -0.215 -0.061999999
0.0049999999 -13.758 1.677
0.003 -9.9659996 1.039
0.003 -8.0139999 0.69499999
0.003 -6.52 0.45100001
0.0040000002 -5.4530001 0.28299999
0.0040000002 -4.7010002 0.162
0.0040000002 -4.1989999 0.071999997
0.0040000002 -3.796 -0
0.0040000002 -3.487 -0.061000001
0.0040000002 -3.198 -0.111
0.0040000002 -2.944 -0.154
0.0040000002 -2.7130001 -0.189
0.0040000002 -2.526 -0.22
0.0040000002 -2.359 -0.24699999
0.0040000002 -2.223 -0.27200001
0.0040000002 -2.096 -0.29300001
0.0049999999 -1.983 -0.31299999
0.001 -0.433 -0.075999998
0.001 -0.338 -0.064999998
0.001 -0.29300001 -0.061999999
0.001 -0.257 -0.059
0.001 -0.241 -0.059999999
0.001 -0.23199999 -0.061999999
0.001 -0.208 -0.059999999
-0.037999999 -13.766 1.678
-0.028000001 -9.9580002 1.038
-0.022 -8.0179996 0.69499999
-0.017000001 -6.5320001 0.45199999
-0.013 -5.4569998 0.28299999
-0.011 -4.7049999 0.162
-0.0099999998 -4.2030001 0.071999997
-0.0080000004 -3.7920001 -0
-0.0070000002 -3.4949999 -0.061000001
-0.0060000001 -3.2060001 -0.112
-0.0049999999 -2.944 -0.154
-0.0040000002 -2.717 -0.189
-0.0040000002 -2.526 -0.22
-0.003 -2.3629999 -0.24699999
-0.003 -2.223 -0.27200001
-0.0020000001 -2.096 -0.29300001
-0.0020000001 -1.98 -0.31200001
-0 -0.42899999 -0.075000003
-0 -0.338 -0.064999998
-0 -0.29300001 -0.061999999
-0 -0.273 -0.063000001
0 -0.248 -0.061999999
0 -0.22400001 -0.059999999
0 -0.219 -0.063000001
-0.082000002 -13.786 1.6799999
-0.059 -9.9700003 1.039
-0.048 -8.026 0.69599998
-0.037999999 -6.5320001 0.45199999
-0.029999999 -5.4569998 0.28299999
-0.025 -4.7090001 0.162
-0.023 -4.211 0.071999997
-0.02 -3.796 -0
-0.017999999 -3.483 -0.061000001
-0.016000001 -3.2060001 -0.112
-0.014 -2.944 -0.154
-0.013 -2.721 -0.19
-0.012 -2.5339999 -0.221
-0.011 -2.3629999 -0.24699999
-0.0099999998 -2.2190001 -0.271
-0.0089999996 -2.0999999 -0.294
-0.0080000004 -1.983 -0.31299999
-0.0020000001 -0.45300001 -0.079999998
-0.001 -0.338 -0.064999998
-0.001 -0.29699999 -0.063000001
-0.001 -0.26899999 -0.061999999
-0.001 -0.25600001 -0.064000003
-0.001 -0.23199999 -0.061999999
-0.001 -0.219 -0.063000001
-0.125 -13.754 1.676
-0.090000004 -9.9700003 1.039
-0.072999999 -8.0139999 0.69499999
-0.057999998 -6.5320001 0.45199999
-0.048 -5.4559999 0.28299999
-0.039999999 -4.7129998 0.163
-0.035999998 -4.2069998 0.071999997
-0.032000002 -3.8039999 -0
-0.028999999 -3.487 -0.061000001
-0.026000001 -3.21 -0.112
-0.024 -2.948 -0.154
-0.021 -2.717 -0.189
-0.02 -2.5339999 -0.221
-0.017999999 -2.3629999 -0.24699999
-0.017000001 -2.227 -0.27200001
-0.015 -2.096 -0.29300001
-0.014 -1.983 -0.31299999
-0.003 -0.449 -0.079000004
-0.0020000001 -0.33399999 -0.064999998
-0.0020000001 -0.29699999 -0.063000001
-0.0020000001 -0.26499999 -0.061000001
-0.0020000001 -0.252 -0.063000001
-0.001 -0.228 -0.061000001
-0.001 -0.215 -0.061999999
-0.168 -13.753 1.676
-0.122 -9.9689999 1.039
-0.097999997 -8.0249996 0.69599998
-0.079000004 -6.54 0.45300001
-0.064999998 -5.4720001 0.28400001
-0.055 -4.7129998 0.163
-0.048999999 -4.2069998 0.071999997
-0.044 -3.812 -0
-0.039999999 -3.4909999 -0.061000001
-0.035999998 -3.2019999 -0.112
-0.033 -2.948 -0.154
-0.029999999 -2.7290001 -0.19
-0.028000001 -2.5380001 -0.221
-0.026000001 -2.375 -0.249
-0.024 -2.223 -0.27200001
-0.022 -2.099 -0.294
-0.02 -1.987 -0.31299999
-0.0040000002 -0.44100001 -0.078000002
-0.003 -0.32600001 -0.063000001
-0.003 -0.28999999 -0.061000001
-0.0020000001 -0.257 -0.059
-0.0020000001 -0.248 -0.061999999
-0.0020000001 -0.236 -0.063000001
-0.0020000001 -0.211 -0.061000001
-0.212 -13.788 1.681
-0.153 -9.9650002 1.039
-0.123 -8.0170002 0.69499999
-0.098999999 -6.54 0.45300001
-0.082000002 -5.4720001 0.28400001
-0.07 -4.717 0.163
-0.063000001 -4.2150002 0.071999997
-0.056000002 -3.8080001 -0
-0.050999999 -3.4990001 -0.061000001
-0.046 -3.21 -0.112
-0.041999999 -2.9519999 -0.154
-0.039000001 -2.7249999 -0.19
-0.035999998 -2.526 -0.22
-0.033 -2.3670001 -0.248
-0.030999999 -2.223 -0.27200001
-0.028999999 -2.099 -0.294
-0.027000001 -1.983 -0.31299999
-0.0060000001 -0.43700001 -0.077
-0.0040000002 -0.33399999 -0.064999998
-0.0040000002 -0.28999999 -0.061000001
-0.003 -0.26899999 -0.061999999
-0.003 -0.245 -0.061000001
-0.003 -0.236 -0.063000001
-0.003 -0.215 -0.061999999
-0.255 -13.788 1.681
-0.184 -9.9680004 1.039
-0.148 -8.0249996 0.69599998
-0.12 -6.539 0.45300001
-0.098999999 -5.48 0.28400001
-0.085000001 -4.7199998 0.163
-0.075999998 -4.211 0.071999997
-0.068000004 -3.8069999 -0
-0.061999999 -3.4949999 -0.061000001
-0.057 -3.2060001 -0.112
-0.052000001 -2.9519999 -0.154
-0.046999998 -2.7249999 -0.19
-0.044 -2.53 -0.221
-0.041000001 -2.3710001 -0.248
-0.037999999 -2.223 -0.27200001
-0.035 -2.099 -0.294
-0.033 -1.987 -0.31299999
-0.0070000002 -0.44100001 -0.078000002
-0.0049999999 -0.33000001 -0.064000003
-0.0049999999 -0.28999999 -0.061000001
-0.0040000002 -0.26899999 -0.061999999
-0.0040000002 -0.245 -0.061000001
-0.0040000002 -0.23199999 -0.061999999
-0.003 -0.208 -0.059999999
-0.29899999 -13.807 1.683
-0.21600001 -9.9720001 1.04
-0.17399999 -8.0319996 0.69700003
-0.141 -6.5549998 0.454
-0.117 -5.4829998 0.28400001
-0.1 -4.724 0.163
-0.089000002 -4.2140002 0.071999997
-0.079999998 -3.8150001 -0
-0.072999999 -3.4990001 -0.061000001
-0.067000002 -3.2130001 -0.112
-0.061000001 -2.951 -0.154
-0.056000002 -2.7249999 -0.19
-0.052000001 -2.5380001 -0.221
-0.048 -2.375 -0.249
-0.045000002 -2.227 -0.27200001
-0.041999999 -2.099 -0.294
-0.039000001 -1.983 -0.31299999
-0.0089999996 -0.43700001 -0.077
-0.0060000001 -0.33399999 -0.064999998
-0.0060000001 -0.29699999 -0.063000001
-0.0049999999 -0.26100001 -0.059999999
-0.0049999999 -0.252 -0.063000001
-0.0040000002 -0.22400001 -0.059999999
-0.0040000002 -0.219 -0.063000001
-0.34299999 -13.829 1.686
-0.24699999 -9.9549999 1.038
-0.199 -8.0270004 0.69599998
-0.161 -6.5500002 0.454
-0.134 -5.4910002 0.285
-0.115 -4.724 0.163
-0.102 -4.2140002 0.071999997
-0.092 -3.8150001 -0
-0.083999999 -3.5020001 -0.061000001
-0.077 -3.217 -0.112
-0.07 -2.9549999 -0.155
-0.064000003 -2.7290001 -0.19
-0.059999999 -2.5339999 -0.221
-0.056000002 -2.3740001 -0.249
-0.052000001 -2.2309999 -0.273
-0.048 -2.099 -0.294
-0.045000002 -1.987 -0.31299999
-0.0099999998 -0.43700001 -0.077
-0.0080000004 -0.33399999 -0.064999998
-0.0070000002 -0.301 -0.064000003
-0.0060000001 -0.26499999 -0.061000001
-0.0049999999 -0.244 -0.061000001
-0.0049999999 -0.21600001 -0.057999998
-0.0040000002 -0.204 -0.057999998
-0.38699999 -13.844 1.688
-0.278 -9.9659996 1.039
-0.22400001 -8.0270004 0.69599998
-0.182 -6.5580001 0.454
-0.15099999 -5.4910002 0.285
-0.13 -4.7309999 0.163
-0.116 -4.2220001 0.072999999
-0.104 -3.8110001 -0
-0.094999999 -3.4979999 -0.061000001
-0.086999997 -3.2130001 -0.112
-0.079000004 -2.9549999 -0.155
-0.072999999 -2.7279999 -0.19
-0.068000004 -2.5369999 -0.221
-0.063000001 -2.3659999 -0.248
-0.059 -2.227 -0.27200001
-0.055 -2.095 -0.29300001
-0.052000001 -1.983 -0.31299999
-0.011 -0.42500001 -0.075000003
-0.0080000004 -0.33000001 -0.064000003
-0.0080000004 -0.301 -0.064000003
-0.0070000002 -0.26499999 -0.061000001
-0.0060000001 -0.25600001 -0.064000003
-0.0049999999 -0.22 -0.059
-0.0049999999 -0.219 -0.063000001
-0.43099999 -13.855 1.689
-0.31 -9.9890003 1.0420001
-0.249 -8.026 0.69599998
-0.20299999 -6.5609999 0.45500001
-0.169 -5.4899998 0.285
-0.145 -4.7309999 0.163
-0.12899999 -4.217 0.071999997
-0.116 -3.8299999 -0
-0.106 -3.5020001 -0.061000001
-0.097000003 -3.2130001 -0.112
-0.089000002 -2.9590001 -0.155
-0.082000002 -2.7320001 -0.191
-0.075999998 -2.5409999 -0.222
-0.071000002 -2.378 -0.249
-0.066 -2.23 -0.273
-0.061000001 -2.095 -0.29300001
-0.057999998 -1.987 -0.31299999
-0.012 -0.42899999 -0.075000003
-0.0099999998 -0.338 -0.064999998
-0.0080000004 -0.29300001 -0.061999999
-0.0070000002 -0.257 -0.059
-0.0070000002 -0.252 -0.063000001
-0.0060000001 -0.22 -0.059
-0.0060000001 -0.204 -0.057999998
-0.47400001 -13.853 1.689
-0.34299999 -10.012 1.044
-0.27399999 -8.0170002 0.69599998
-0.22400001 -6.5679998 0.45500001
-0.186 -5.4970002 0.285
-0.16 -4.7459998 0.164
-0.142 -4.2210002 0.072999999
-0.12800001 -3.826 -0
-0.118 -3.5050001 -0.061000001
-0.107 -3.2119999 -0.112
-0.097999997 -2.9579999 -0.155
-0.090000004 -2.7279999 -0.19
-0.083999999 -2.5409999 -0.222
-0.078000002 -2.3740001 -0.249
-0.072999999 -2.23 -0.273
-0.068000004 -2.102 -0.294
-0.064000003 -1.9859999 -0.31299999
-0.014 -0.433 -0.075999998
-0.011 -0.33000001 -0.064000003
-0.0089999996 -0.29300001 -0.061999999
-0.0080000004 -0.26100001 -0.059999999
-0.0080000004 -0.241 -0.059999999
-0.0070000002 -0.23199999 -0.061999999
-0.0070000002 -0.215 -0.061999999
-0.51899999 -13.884 1.693
-0.37400001 -9.9989996 1.043
-0.30000001 -8.0159998 0.69599998
-0.244 -6.5640001 0.45500001
-0.204 -5.5009999 0.285
-0.175 -4.7459998 0.164
-0.156 -4.2249999 0.072999999
-0.14 -3.8210001 -0
-0.12899999 -3.5050001 -0.061000001
-0.117 -3.2160001 -0.112
-0.108 -2.9660001 -0.155
-0.098999999 -2.7320001 -0.191
-0.092 -2.5369999 -0.221
-0.086000003 -2.3770001 -0.249
-0.079999998 -2.23 -0.273
-0.075000003 -2.102 -0.294
-0.071000002 -1.99 -0.31400001
-0.015 -0.43700001 -0.077
-0.012 -0.33000001 -0.064000003
-0.0099999998 -0.285 -0.061000001
-0.0089999996 -0.257 -0.059
-0.0080000004 -0.244 -0.061000001
-0.0080000004 -0.228 -0.061000001
-0.0070000002 -0.219 -0.063000001
-0.56300002 -13.894 1.6950001
-0.40599999 -10.013 1.045
-0.32499999 -8.0229998 0.69599998
-0.26499999 -6.5710001 0.45500001
-0.221 -5.4959998 0.285
-0.19 -4.7490001 0.164
-0.169 -4.2319999 0.072999999
-0.152 -3.825 -0
-0.14 -3.5090001 -0.061000001
-0.127 -3.2119999 -0.112
-0.117 -2.9579999 -0.155
-0.107 -2.7349999 -0.191
-0.1 -2.54 -0.222
-0.093000002 -2.3729999 -0.249
-0.086999997 -2.234 -0.273
-0.081 -2.102 -0.294
-0.077 -1.99 -0.31400001
-0.017000001 -0.433 -0.075999998
-0.013 -0.33000001 -0.064000003
-0.011 -0.29300001 -0.061999999
-0.0099999998 -0.26899999 -0.061999999
-0.0089999996 -0.244 -0.061000001
-0.0089999996 -0.23199999 -0.061999999
-0.0080000004 -0.204 -0.057999998
-0.60699999 -13.904 1.696
-0.43700001 -10.016 1.045
-0.35100001 -8.0299997 0.69700003
-0.28600001 -6.566 0.45500001
-0.23800001 -5.4990001 0.285
-0.205 -4.757 0.164
-0.183 -4.2309999 0.072999999
-0.16500001 -3.832 -0
-0.15099999 -3.5039999 -0.061000001
-0.138 -3.2190001 -0.112
-0.126 -2.9649999 -0.155
-0.116 -2.7349999 -0.191
-0.108 -2.54 -0.222
-0.1 -2.3770001 -0.249
-0.093999997 -2.237 -0.27399999
-0.088 -2.1059999 -0.29499999
-0.082999997 -1.99 -0.31400001
-0.017999999 -0.42899999 -0.075000003
-0.014 -0.33000001 -0.064000003
-0.012 -0.29300001 -0.061999999
-0.0099999998 -0.25299999 -0.057999998
-0.0099999998 -0.248 -0.061999999
-0.0089999996 -0.22400001 -0.059999999
-0.0089999996 -0.215 -0.061999999
-0.64999998 -13.894 1.6950001
-0.46900001 -10.011 1.045
-0.37 -7.914 0.68699998
-0.30700001 -6.573 0.456
-0.25600001 -5.5149999 0.28600001
-0.22 -4.7600002 0.164
-0.19599999 -4.2309999 0.072999999
-0.177 -3.832 -0
-0.162 -3.5079999 -0.061000001
-0.148 -3.223 -0.112
-0.13600001 -2.9649999 -0.155
-0.124 -2.7309999 -0.191
-0.116 -2.5439999 -0.222
-0.108 -2.3770001 -0.249
-0.101 -2.2290001 -0.273
-0.094999999 -2.0969999 -0.294
-0.089000002 -1.985 -0.31299999
-0.018999999 -0.433 -0.075999998
-0.015 -0.333 -0.064999998
-0.013 -0.29699999 -0.063000001
-0.012 -0.26499999 -0.061000001
-0.011 -0.252 -0.063000001
-0.0099999998 -0.22400001 -0.059999999
-0.0089999996 -0.211 -0.061000001
-0.69499999 -13.912 1.698
-0.5 -10.017 1.046
-0.391 -7.8210001 0.67900002
-0.32699999 -6.5679998 0.45500001
-0.27399999 -5.5219998 0.287
-0.236 -4.7709999 0.16500001
-0.20900001 -4.2340002 0.072999999
-0.189 -3.8310001 -0
-0.17299999 -3.507 -0.061000001
-0.15800001 -3.2179999 -0.112
-0.145 -2.964 -0.155
-0.133 -2.734 -0.191
-0.124 -2.543 -0.222
-0.115 -2.372 -0.249
-0.108 -2.2290001 -0.273
-0.101 -2.1010001 -0.294
-0.096000001 -1.989 -0.31400001
-0.02 -0.42500001 -0.075000003
-0.015 -0.31799999 -0.061999999
-0.014 -0.29699999 -0.063000001
-0.013 -0.273 -0.063000001
-0.012 -0.244 -0.061000001
-0.0099999998 -0.22400001 -0.059999999
-0.0099999998 -0.207 -0.059999999
-0.74000001 -13.925 1.7
-0.53299999 -10.035 1.048
-0.40400001 -7.6090002 0.66100001
-0.34799999 -6.5710001 0.456
-0.29100001 -5.5209999 0.287
-0.25 -4.763 0.164
-0.223 -4.2340002 0.072999999
-0.20100001 -3.839 -0
-0.184 -3.507 -0.061000001
-0.168 -3.2179999 -0.112
-0.154 -2.964 -0.155
-0.142 -2.7460001 -0.192
-0.132 -2.539 -0.222
-0.123 -2.3759999 -0.249
-0.115 -2.2279999 -0.273
-0.108 -2.105 -0.29499999
-0.102 -1.989 -0.31400001
-0.022 -0.43700001 -0.077
-0.017000001 -0.329 -0.064000003
-0.016000001 -0.30899999 -0.064999998
-0.013 -0.26499999 -0.061000001
-0.012 -0.248 -0.061999999
-0.011 -0.228 -0.061000001
-0.011 -0.215 -0.061999999
-0.78399998 -13.939 1.702
-0.42699999 -7.5869999 0.792
-0.426 -7.5799999 0.65799999
-0.36899999 -6.5819998 0.456
-0.30899999 -5.5279999 0.287
-0.266 -4.7779999 0.16500001
-0.236 -4.2410002 0.072999999
-0.213 -3.8340001 -0
-0.19499999 -3.5139999 -0.061000001
-0.17900001 -3.2249999 -0.113
-0.164 -2.9749999 -0.156
-0.15099999 -2.737 -0.191
-0.14 -2.543 -0.222
-0.13 -2.375 -0.249
-0.122 -2.24 -0.27399999
-0.115 -2.1040001 -0.29499999
-0.108 -1.988 -0.31400001
-0.023 -0.42500001 -0.075000003
-0.017999999 -0.33700001 -0.064999998
-0.015 -0.285 -0.061000001
-0.014 -0.26899999 -0.061999999
-0.013 -0.236 -0.059
-0.012 -0.228 -0.061000001
-0.011 -0.211 -0.061000001
-0.44999999 -7.5780001 0.92500001
-0.449 -7.5619998 0.79000002
-0.44999999 -7.5700002 0.65799999
-0.38999999 -6.5770001 0.456
-0.32600001 -5.527 0.287
-0.28099999 -4.7729998 0.16500001
-0.249 -4.2360001 0.072999999
-0.226 -3.8410001 -0
-0.207 -3.517 -0.061999999
-0.189 -3.2249999 -0.113
-0.17299999 -2.9630001 -0.155
-0.16 -2.7449999 -0.192
-0.148 -2.546 -0.222
-0.138 -2.3710001 -0.249
-0.12899999 -2.2279999 -0.273
-0.121 -2.0999999 -0.294
-0.114 -1.984 -0.31299999
-0.024 -0.417 -0.072999999
-0.018999999 -0.333 -0.064999998
-0.016000001 -0.285 -0.061000001
-0.015 -0.26100001 -0.059999999
-0.014 -0.23999999 -0.059999999
-0.012 -0.22 -0.059
-0.012 -0.211 -0.061000001
-0.47400001 -7.573 0.92500001
-0.47299999 -7.5640001 0.79000002
-0.47299999 -7.5650001 0.65700001
-0.41100001 -6.5830002 0.45699999
-0.34400001 -5.5219998 0.287
-0.296 -4.7719998 0.16500001
-0.26300001 -4.243 0.072999999
-0.23800001 -3.845 -0
-0.21799999 -3.517 -0.061999999
-0.199 -3.224 -0.113
-0.182 -2.9660001 -0.155
-0.168 -2.74 -0.191
-0.156 -2.5380001 -0.222
-0.145 -2.3629999 -0.248
-0.13600001 -2.227 -0.273
-0.12800001 -2.1040001 -0.29499999
-0.121 -1.992 -0.315
-0.024 -0.405 -0.071000002
-0.018999999 -0.32100001 -0.061999999
-0.017999999 -0.29699999 -0.063000001
-0.016000001 -0.26100001 -0.059999999
-0.015 -0.244 -0.061000001
-0.014 -0.228 -0.061000001
-0.012 -0.2 -0.057
-0.91600001 -13.935 1.702
-0.498 -7.5780001 0.792
-0.498 -7.5830002 0.65899998
-0.43200001 -6.5900002 0.45699999
-0.361 -5.5250001 0.287
-0.31099999 -4.7750001 0.16500001
-0.27700001 -4.2420001 0.072999999
-0.25 -3.8399999 -0
-0.228 -3.5120001 -0.061000001
-0.20900001 -3.223 -0.113
-0.192 -2.9660001 -0.155
-0.176 -2.7320001 -0.191
-0.164 -2.549 -0.223
-0.152 -2.3659999 -0.248
-0.14300001 -2.2309999 -0.273
-0.13500001 -2.1029999 -0.29499999
-0.127 -1.987 -0.31400001
-0.027000001 -0.417 -0.072999999
-0.02 -0.32100001 -0.061999999
-0.018999999 -0.29300001 -0.061999999
-0.017000001 -0.26800001 -0.061999999
-0.016000001 -0.248 -0.061999999
-0.014 -0.22 -0.059
-0.013 -0.20299999 -0.057999998
0 0 0
-0.95999998 -13.94 1.7029999
-0.69199997 -10.05 1.05
-0.523 -7.5929999 0.66000003
-0.45300001 -6.6009998 0.458
-0.37900001 -5.5359998 0.28799999
-0.32699999 -4.7779999 0.16500001
-0.28999999 -4.2490001 0.072999999
-0.26199999 -3.839 -0
-0.23999999 -3.5190001 -0.061999999
-0.219 -3.223 -0.113
-0.20200001 -2.973 -0.156
-0.186 -2.747 -0.192
-0.17200001 -2.5450001 -0.222
-0.15899999 -2.358 -0.24699999
-0.15099999 -2.2379999 -0.27399999
-0.141 -2.1029999 -0.29499999
-0.133 -1.987 -0.31400001
-0.026000001 -0.39300001 -0.068999998
-0.021 -0.31299999 -0.061000001
-0.018999999 -0.289 -0.061000001
-0.017000001 -0.25299999 -0.057999998
-0.016000001 -0.23999999 -0.059999999
-0.015 -0.227 -0.061000001
-0.014 -0.207 -0.059999999
-1.005 -13.956 1.705
-0.72600001 -10.079 1.054
-0.574 -7.9689999 0.69300002
-0.47499999 -6.6110001 0.45899999
-0.39700001 -5.5380001 0.28799999
-0.34200001 -4.789 0.16599999
-0.303 -4.2410002 0.072999999
-0.27399999 -3.842 -0
-0.25099999 -3.523 -0.061999999
-0.23 -3.23 -0.113
-0.211 -2.9679999 -0.156
-0.19400001 -2.7460001 -0.192
-0.18000001 -2.54 -0.222
-0.168 -2.3729999 -0.249
-0.15700001 -2.234 -0.27399999
-0.148 -2.102 -0.29499999
-0.14 -1.99 -0.315
-0.027000001 -0.389 -0.068999998
-0.023 -0.333 -0.064999998
-0.021 -0.29699999 -0.063000001
-0.017999999 -0.26100001 -0.059999999
-0.017000001 -0.23999999 -0.059999999
-0.016000001 -0.227 -0.061000001
-0.014 -0.20299999 -0.057999998
-1.051 -13.981 1.709
-0.75599998 -10.057 1.051
-0.60699999 -8.0670004 0.70099998
-0.49700001 -6.6209998 0.46000001
-0.41499999 -5.5450001 0.28799999
-0.35699999 -4.7880001 0.16599999
-0.317 -4.2480001 0.072999999
-0.28600001 -3.8410001 -0
-0.26199999 -3.5220001 -0.061999999
-0.23999999 -3.2249999 -0.113
-0.221 -2.98 -0.156
-0.20299999 -2.7460001 -0.192
-0.18799999 -2.543 -0.222
-0.175 -2.369 -0.249
-0.164 -2.2290001 -0.273
-0.155 -2.1059999 -0.29499999
-0.146 -1.99 -0.315
-0.028000001 -0.389 -0.068999998
-0.023 -0.317 -0.061999999
-0.021 -0.289 -0.061000001
-0.018999999 -0.26800001 -0.061999999
-0.017999999 -0.244 -0.061000001
-0.017000001 -0.23100001 -0.061999999
-0.014 -0.19599999 -0.056000002
-1.097 -14.005 1.712
-0.78899997 -10.066 1.053
-0.63200003 -8.0690002 0.70200002
-0.51700002 -6.612 0.45899999
-0.433 -5.5479999 0.28799999
-0.373 -4.7870002 0.16599999
-0.331 -4.2550001 0.072999999
-0.29800001 -3.8399999 -0
-0.27399999 -3.5250001 -0.061999999
-0.25 -3.224 -0.113
-0.23100001 -2.983 -0.156
-0.212 -2.7490001 -0.192
-0.19599999 -2.5469999 -0.223
-0.182 -2.3640001 -0.248
-0.17200001 -2.237 -0.27399999
-0.161 -2.1010001 -0.29499999
-0.152 -1.993 -0.315
-0.028999999 -0.38100001 -0.067000002
-0.025 -0.32499999 -0.063000001
-0.023 -0.30000001 -0.064000003
-0.02 -0.264 -0.061000001
-0.017999999 -0.244 -0.061000001
-0.017000001 -0.22 -0.059
-0.016000001 -0.211 -0.061000001
-1.142 -14.01 1.7130001
-0.82300001 -10.1 1.056
-0.65899998 -8.0830002 0.70300001
-0.53899997 -6.6259999 0.46000001
-0.449 -5.5380001 0.28799999
-0.38800001 -4.7930002 0.16599999
-0.34400001 -4.2529998 0.072999999
-0.31099999 -3.8469999 -0
-0.285 -3.5239999 -0.061999999
-0.25999999 -3.2279999 -0.113
-0.23899999 -2.97 -0.156
-0.221 -2.756 -0.193
-0.205 -2.5539999 -0.223
-0.19 -2.3710001 -0.249
-0.178 -2.224 -0.273
-0.168 -2.1129999 -0.29699999
-0.15800001 -1.989 -0.315
-0.029999999 -0.377 -0.066
-0.026000001 -0.329 -0.064000003
-0.023 -0.289 -0.061000001
-0.021 -0.264 -0.061000001
-0.018999999 -0.244 -0.061000001
-0.017999999 -0.223 -0.059999999
-0.017000001 -0.222 -0.064000003
-1.187 -14.018 1.715
-0.85500002 -10.097 1.056
-0.685 -8.085 0.704
-0.56 -6.632 0.461
-0.46799999 -5.5450001 0.28799999
-0.40400001 -4.8000002 0.16599999
-0.35699999 -4.2480001 0.072999999
-0.32300001 -3.846 -0
-0.296 -3.5190001 -0.061999999
-0.271 -3.2349999 -0.113
-0.249 -2.9779999 -0.156
-0.23 -2.7520001 -0.192
-0.213 -2.549 -0.223
-0.197 -2.3670001 -0.249
-0.185 -2.2279999 -0.273
-0.175 -2.108 -0.296
-0.16500001 -1.989 -0.315
-0.029999999 -0.361 -0.064000003
-0.026000001 -0.32100001 -0.061999999
-0.024 -0.292 -0.061999999
-0.021 -0.25999999 -0.059999999
-0.021 -0.255 -0.064000003
-0.018999999 -0.235 -0.063000001
-0.017000001 -0.207 -0.059999999
-1.2359999 -14.065 1.721
-0.88700002 -10.098 1.057
-0.71100003 -8.0939999 0.70499998
-0.58099997 -6.631 0.461
-0.486 -5.5510001 0.289
-0.419 -4.7989998 0.16599999
-0.37200001 -4.263 0.074000001
-0.336 -3.8529999 -0
-0.30700001 -3.5220001 -0.061999999
-0.28099999 -3.234 -0.113
-0.25799999 -2.977 -0.156
-0.23899999 -2.763 -0.193
-0.221 -2.553 -0.223
-0.205 -2.3659999 -0.249
-0.191 -2.2190001 -0.27200001
-0.18099999 -2.108 -0.296
-0.171 -1.992 -0.315
-0.029999999 -0.34900001 -0.061999999
-0.026000001 -0.30899999 -0.059999999
-0.025 -0.292 -0.061999999
-0.023 -0.264 -0.061000001
-0.02 -0.23999999 -0.059999999
-0.02 -0.23100001 -0.061999999
-0.017000001 -0.20299999 -0.057999998
-1.2819999 -14.085 1.724
-0.92000002 -10.111 1.059
-0.73699999 -8.0959997 0.70499998
-0.60299999 -6.6370001 0.461
-0.50300002 -5.5500002 0.289
-0.43399999 -4.7940001 0.16599999
-0.38499999 -4.2540002 0.072999999
-0.34799999 -3.852 -0
-0.31799999 -3.5250001 -0.061999999
-0.29100001 -3.233 -0.113
-0.26800001 -2.9760001 -0.156
-0.24699999 -2.75 -0.192
-0.229 -2.552 -0.223
-0.212 -2.3699999 -0.249
-0.199 -2.223 -0.273
-0.18799999 -2.1029999 -0.29499999
-0.177 -1.9910001 -0.315
-0.028999999 -0.33000001 -0.057999998
-0.028000001 -0.32100001 -0.061999999
-0.025 -0.27700001 -0.059
-0.023 -0.264 -0.061000001
-0.021 -0.236 -0.059
-0.02 -0.223 -0.059999999
-0.017999999 -0.211 -0.061000001
-1.329 -14.117 1.728
-0.95200002 -10.108 1.059
-0.764 -8.1099997 0.70599997
-0.62400001 -6.6389999 0.46200001
-0.52200001 -5.5679998 0.28999999
-0.44999999 -4.8080001 0.167
-0.39899999 -4.257 0.072999999
-0.36000001 -3.8469999 -0
-0.33000001 -3.5320001 -0.061999999
-0.30199999 -3.24 -0.113
-0.278 -2.983 -0.15700001
-0.25600001 -2.757 -0.193
-0.237 -2.5550001 -0.22400001
-0.219 -2.365 -0.249
-0.206 -2.2219999 -0.273
-0.19499999 -2.1059999 -0.296
-0.184 -1.9910001 -0.315
-0.030999999 -0.333 -0.059
-0.028999999 -0.317 -0.061999999
-0.026000001 -0.28099999 -0.059999999
-0.025 -0.26800001 -0.061999999
-0.022 -0.23999999 -0.059999999
-0.021 -0.227 -0.061000001
-0.018999999 -0.214 -0.061999999
-1.201 -12.342 1.511
-0.98500001 -10.117 1.0599999
-0.78899997 -8.1070004 0.70599997
-0.64600003 -6.6529999 0.463
-0.54000002 -5.566 0.28999999
-0.465 -4.8070002 0.167
-0.412 -4.2550001 0.072999999
-0.373 -3.858 -0
-0.34200001 -3.5350001 -0.061999999
-0.31200001 -3.2309999 -0.113
-0.287 -2.9820001 -0.15700001
-0.26499999 -2.753 -0.193
-0.245 -2.5510001 -0.223
-0.228 -2.3759999 -0.25
-0.212 -2.217 -0.27200001
-0.20200001 -2.1099999 -0.29699999
-0.19 -1.994 -0.31600001
-0.034000002 -0.35299999 -0.061999999
-0.029999999 -0.31299999 -0.061000001
-0.028000001 -0.292 -0.061999999
-0.024 -0.25600001 -0.059
-0.023 -0.23999999 -0.059999999
-0.021 -0.219 -0.059
-0.018999999 -0.207 -0.059999999
-1.239 -12.326 1.51
-1.018 -10.126 1.061
-0.815 -8.1090002 0.70700002
-0.667 -6.651 0.463
-0.55699998 -5.5650001 0.28999999
-0.48199999 -4.8169999 0.167
-0.42699999 -4.2659998 0.074000001
-0.38499999 -3.8610001 -0
-0.352 -3.53 -0.061999999
-0.322 -3.23 -0.113
-0.29699999 -2.9809999 -0.15700001
-0.27399999 -2.756 -0.193
-0.25400001 -2.562 -0.22400001
-0.235 -2.3670001 -0.249
-0.22 -2.224 -0.273
-0.208 -2.109 -0.29699999
-0.197 -1.994 -0.31600001
-0.034000002 -0.34099999 -0.059999999
-0.030999999 -0.317 -0.061999999
-0.027000001 -0.273 -0.057999998
-0.025 -0.252 -0.057999998
-0.025 -0.25099999 -0.063000001
-0.021 -0.219 -0.059
-0.02 -0.207 -0.059999999
-1.2690001 -12.239 1.5
-1.05 -10.123 1.061
-0.84200001 -8.1219997 0.708
-0.68900001 -6.652 0.463
-0.57700002 -5.579 0.29100001
-0.498 -4.8239999 0.167
-0.43900001 -4.257 0.074000001
-0.39700001 -3.852 -0
-0.36500001 -3.5409999 -0.061999999
-0.33199999 -3.2290001 -0.113
-0.30599999 -2.98 -0.15700001
-0.28299999 -2.7590001 -0.193
-0.26199999 -2.5569999 -0.22400001
-0.243 -2.375 -0.25
-0.227 -2.2279999 -0.27399999
-0.215 -2.1040001 -0.296
-0.20200001 -1.989 -0.315
-0.034000002 -0.333 -0.059
-0.030999999 -0.30899999 -0.059999999
-0.028000001 -0.27599999 -0.059
-0.025 -0.252 -0.057999998
-0.025 -0.243 -0.061000001
-0.023 -0.227 -0.061000001
-0.021 -0.214 -0.061999999
-1.3049999 -12.216 1.497
-1.084 -10.139 1.063
-0.86799997 -8.1230001 0.708
-0.71100003 -6.6620002 0.46399999
-0.59399998 -5.5770001 0.29100001
-0.51300001 -4.822 0.167
-0.45300001 -4.263 0.074000001
-0.41100001 -3.8699999 -0
-0.375 -3.536 -0.061999999
-0.34299999 -3.2360001 -0.113
-0.315 -2.9790001 -0.15700001
-0.292 -2.7620001 -0.19400001
-0.26899999 -2.5480001 -0.223
-0.249 -2.3659999 -0.249
-0.234 -2.223 -0.273
-0.222 -2.108 -0.29699999
-0.20900001 -1.992 -0.31600001
-0.037 -0.35699999 -0.063000001
-0.033 -0.31999999 -0.061999999
-0.029999999 -0.292 -0.061999999
-0.028000001 -0.271 -0.063000001
-0.025 -0.23899999 -0.059999999
-0.023 -0.219 -0.059
-0.021 -0.20299999 -0.057999998
-1.378 -12.506 1.757
-1.335 -12.132 1.488
-1.118 -10.155 1.0650001
-0.89499998 -8.132 0.70899999
-0.73199999 -6.664 0.46399999
-0.61199999 -5.579 0.29100001
-0.52700001 -4.816 0.167
-0.46799999 -4.27 0.074000001
-0.42300001 -3.869 -0
-0.38699999 -3.5420001 -0.061999999
-0.354 -3.243 -0.114
-0.32499999 -2.9779999 -0.15700001
-0.30000001 -2.753 -0.193
-0.27900001 -2.563 -0.22499999
-0.25799999 -2.3770001 -0.25
-0.241 -2.2219999 -0.273
-0.228 -2.1029999 -0.296
-0.21600001 -1.9960001 -0.317
-0.035999998 -0.333 -0.059
-0.034000002 -0.31200001 -0.061000001
-0.030999999 -0.28799999 -0.061000001
-0.027000001 -0.25600001 -0.059
-0.026000001 -0.23899999 -0.059999999
-0.024 -0.227 -0.061000001
-0.021 -0.199 -0.057
-1.408 -12.393 2.4130001
-1.409 -12.409 2.191
-1.409 -12.422 1.969
-1.4119999 -12.451 1.75
-1.365 -12.057 1.479
-1.151 -10.168 1.067
-0.921 -8.1370001 0.70999998
-0.75400001 -6.665 0.46399999
-0.63 -5.5770001 0.29100001
-0.54400003 -4.8309999 0.168
-0.48199999 -4.276 0.074000001
-0.435 -3.8640001 -0
-0.40000001 -3.5569999 -0.061999999
-0.36300001 -3.234 -0.113
-0.33500001 -2.9849999 -0.15700001
-0.30899999 -2.76 -0.19400001
-0.287 -2.5580001 -0.22400001
-0.26499999 -2.372 -0.25
-0.248 -2.2219999 -0.273
-0.234 -2.102 -0.296
-0.222 -1.995 -0.317
-0.039999999 -0.36000001 -0.064000003
-0.035 -0.31600001 -0.061999999
-0.033 -0.296 -0.063000001
-0.028999999 -0.25999999 -0.059999999
-0.027000001 -0.243 -0.061000001
-0.024 -0.215 -0.057999998
-0.023 -0.20999999 -0.061000001
-1.439 -12.326 2.401
-1.4400001 -12.335 2.1789999
-1.441 -12.359 1.959
-1.443 -12.375 1.74
-1.387 -11.915 1.462
-1.184 -10.172 1.068
-0.94700003 -8.1379995 0.70999998
-0.77600002 -6.6750002 0.465
-0.64899999 -5.5910001 0.292
-0.55900002 -4.8210001 0.167
-0.495 -4.2750001 0.074000001
-0.447 -3.8659999 -0
-0.41100001 -3.552 -0.061999999
-0.37400001 -3.24 -0.114
-0.34400001 -2.984 -0.15700001
-0.31799999 -2.7590001 -0.19400001
-0.29499999 -2.5650001 -0.22499999
-0.273 -2.3710001 -0.25
-0.255 -2.221 -0.273
-0.241 -2.102 -0.296
-0.229 -1.998 -0.317
-0.037999999 -0.333 -0.059
-0.037999999 -0.33199999 -0.064999998
-0.033 -0.292 -0.061999999
-0.028999999 -0.252 -0.057999998
-0.027000001 -0.23899999 -0.059999999
-0.026000001 -0.23 -0.061999999
-0.024 -0.20999999 -0.061000001
-1.4680001 -12.24 2.385
-1.47 -12.252 2.165
-1.471 -12.28 1.948
-1.474 -12.308 1.7309999
-1.3890001 -11.615 1.426
-1.2180001 -10.184 1.069
-0.97399998 -8.1470003 0.71200001
-0.796 -6.6690001 0.465
-0.66600001 -5.5890002 0.292
-0.57599998 -4.835 0.168
-0.509 -4.277 0.074000001
-0.46000001 -3.869 -0
-0.42300001 -3.5580001 -0.063000001
-0.38499999 -3.2390001 -0.114
-0.354 -2.983 -0.15700001
-0.32699999 -2.766 -0.19400001
-0.303 -2.5599999 -0.22499999
-0.28099999 -2.3740001 -0.25
-0.26300001 -2.2320001 -0.27500001
-0.248 -2.1010001 -0.296
-0.235 -1.993 -0.317
-0.039999999 -0.34 -0.059999999
-0.037 -0.31200001 -0.061000001
-0.030999999 -0.264 -0.056000002
