# .PCD v0.7 - Point Cloud Data file format
VERSION 0.7
FIELDS x y z
SIZE 4 4 4
TYPE F F F
COUNT 1 1 1
WIDTH 153
HEIGHT 1
VIEWPOINT 0 0 0 1 0 0 0
POINTS 153
DATA ascii
1.419 -2.8440001 0.11
1.513 -3.0309999 -0.059
1.403 -2.836 0.164
1.406 -2.8410001 0.109
1.4069999 -2.842 0.054000001
1.455 -2.9389999 -0
1.421 -2.8710001 -0.056000002
1.404 -2.862 0.16500001
1.408 -2.8670001 0.11
1.387 -2.825 0.054000001
1.4 -2.8510001 -0
1.402 -2.8540001 -0.055
1.397 -2.8699999 0.16500001
1.399 -2.872 0.11
1.391 -2.855 -0
1.391 -2.855 -0.055
1.385 -2.8670001 0.16500001
1.383 -2.862 0.11
1.378 -2.852 0.054000001
1.381 -2.8559999 -0
1.38 -2.855 -0.055
1.374 -2.868 0.16500001
1.374 -2.8659999 0.11
1.364 -2.846 0.054000001
1.368 -2.8529999 -0
1.3710001 -2.8599999 -0.055
1.3609999 -2.865 0.164
1.36 -2.859 0.109
1.355 -2.8499999 0.054000001
1.357 -2.8540001 -0
1.359 -2.8570001 -0.055
1.351 -2.865 0.164
1.352 -2.8670001 0.109
1.344 -2.8499999 0.054000001
1.35 -2.8610001 -0
1.352 -2.865 -0.055
1.349 -2.8840001 0.16500001
1.3430001 -2.8710001 0.109
1.339 -2.862 0.054000001
1.345 -2.8729999 -0
1.3430001 -2.869 -0.055
1.336 -2.8789999 0.109
1.33 -2.8659999 0.054000001
1.336 -2.8770001 -0
1.335 -2.8770001 -0.055
1.33 -2.891 0.11
1.33 -2.8889999 -0
1.33 -2.888 -0.055
1.326 -2.904 -0
1.327 -2.9070001 -0.056000002
1.323 -2.9219999 -0.056000002
1.3559999 -3.0209999 -0.057999998
1.9400001 -5.1750002 0.38299999
1.914 -5.1550002 0.38100001
1.895 -5.1570001 0.57300001
1.89 -5.1430001 0.47499999
1.895 -5.1529999 0.38
1.878 -5.1589999 0.57200003
1.874 -5.1490002 0.47499999
1.878 -5.1560001 0.38
1.862 -5.165 0.57200003
1.857 -5.151 0.47499999
1.863 -5.165 0.38
1.848 -5.1789999 0.477
1.846 -5.171 0.38
1.8329999 -5.184 0.38100001
1.819 -5.198 0.38100001
2.326 -6.5830002 0.72799999
2.3210001 -6.5679998 0.60399997
2.299 -6.572 0.72600001
2.296 -6.5640001 0.60299999
2.276 -6.5710001 0.72500002
2.2739999 -6.5669999 0.60299999
2.2590001 -6.5900002 0.72600001
2.2550001 -6.5780001 0.60299999
2.2409999 -6.6040001 0.60500002
2.8039999 -8.4379997 0.92699999
2.7750001 -8.4420004 1.0829999
2.7709999 -8.4280005 0.92500001
2.744 -8.4350004 1.081
2.7420001 -8.4289999 0.92400002
2.7219999 -8.4589996 1.0829999
2.72 -8.4530001 0.926
2.6989999 -8.4770002 0.92699999
0.32699999 -9.3710003 0.97799999
0.29699999 -9.342 1.1390001
0.29699999 -9.3369999 0.97399998
0.26699999 -9.3269997 1.137
0.26699999 -9.3260002 0.97299999
0.23800001 -9.3240004 1.137
0.23800001 -9.3219995 0.972
0.20900001 -9.3450003 1.1390001
0.20900001 -9.3389997 0.97399998
-0.42699999 -7.5869999 0.792
-0.44999999 -7.5780001 0.92500001
-0.449 -7.5619998 0.79000002
-0.44999999 -7.5700002 0.65799999
-0.47400001 -7.573 0.92500001
-0.47299999 -7.5640001 0.79000002
-0.47299999 -7.5650001 0.65700001
-0.498 -7.5780001 0.792
-0.498 -7.5830002 0.65899998
-0.523 -7.5929999 0.66000003
-0.95599997 -6.0539999 0.42399999
-0.97399998 -6.039 0.52999997
-0.972 -6.0359998 0.42300001
-0.99400002 -6.0419998 0.63800001
-0.99000001 -6.02 0.52899998
-0.98900002 -6.0209999 0.42199999
-1.011 -6.027 0.63700002
-1.008 -6.0089998 0.528
-1.008 -6.0180001 0.42199999
-1.029 -6.02 0.63700002
-1.028 -6.0139999 0.52899998
-1.029 -6.026 0.42300001
-1.049 -6.0219998 0.52999997
-1.048 -6.0229998 0.42300001
-1.068 -6.0190001 0.52999997
-1.0700001 -6.039 0.42500001
-1.576 -4.1020002 0.228
-1.6 -4.1669998 0.077
-1.5930001 -4.1090002 0.075999998
-1.601 -4.0910001 0.152
-1.6 -4.0890002 0.075000003
-1.6160001 -4.0900002 0.228
-1.612 -4.0830002 0.15099999
-1.61 -4.0770001 0.075000003
-1.623 -4.0700002 0.227
-1.6210001 -4.066 0.15099999
-1.62 -4.0640001 0.075000003
-1.641 -4.0760002 0.30399999
-1.633 -4.0580001 0.227
-1.633 -4.0609999 0.15099999
-1.631 -4.0560002 0.075000003
-1.651 -4.0630002 0.30399999
-1.643 -4.0450001 0.226
-1.645 -4.052 0.15099999
-1.645 -4.0539999 0.075000003
-1.66 -4.0500002 0.303
-1.658 -4.0479999 0.227
-1.6569999 -4.0469999 0.15099999
-1.658 -4.0489998 0.075000003
-1.673 -4.0450001 0.303
-1.673 -4.046 0.227
-1.6720001 -4.046 0.15099999
-1.6720001 -4.0469999 0.075000003
-1.687 -4.0440001 0.303
-1.687 -4.0440001 0.227
-1.689 -4.0510001 0.15099999
-1.691 -4.0570002 0.075000003
-1.7 -4.039 0.227
-1.709 -4.0630002 0.075999998
-1.776 -4.1859999 0.078000002
