# .PCD v0.7 - Point Cloud Data file format
VERSION 0.7
FIELDS x y z
SIZE 4 4 4
TYPE F F F
COUNT 1 1 1
WIDTH 785
HEIGHT 1
VIEWPOINT 0 0 0 1 0 0 0
POINTS 785
DATA ascii
-3.898 -11.76 1.2920001
-3.9489999 -11.789 1.296
-3.9809999 -11.761 1.295
-4.5539999 -13.309 2.2149999
-4.0219998 -11.76 1.296
-4.6290002 -13.383 2.74
-4.6230001 -13.367 2.4809999
-4.5430002 -13.142 2.1900001
-4.6500001 -13.309 2.7279999
-4.6469998 -13.3 2.4719999
-4.5949998 -13.157 2.1949999
-4.381 -12.544 1.8559999
-4.3740001 -12.532 1.618
-4.6659999 -13.222 2.9690001
-4.6729999 -13.239 2.717
-4.671 -13.234 2.4619999
-4.6539998 -13.195 2.2030001
-4.3959999 -12.463 1.846
-4.3959999 -12.47 1.612
-4.1799998 -11.857 1.311
-4.684 -13.133 3.4690001
-4.691 -13.151 3.214
-4.7010002 -13.189 2.9649999
-4.7010002 -13.187 2.7090001
-4.6950002 -13.171 2.4530001
-4.697 -13.184 2.204
-4.4180002 -12.401 1.8380001
-4.4190001 -12.411 1.6059999
-4.2350001 -11.892 1.316
-4.7049999 -13.053 3.7160001
-4.717 -13.096 3.4630001
-4.7329998 -13.14 3.214
-4.7519999 -13.2 2.971
-4.7259998 -13.128 2.7
-4.7189999 -13.108 2.444
-4.7220001 -13.124 2.1960001
-4.4489999 -12.364 1.835
-4.4650002 -12.416 1.608
-4.2420001 -11.796 1.307
-4.7509999 -13.053 3.72
-4.77 -13.114 3.4719999
-4.7729998 -13.122 3.214
-4.7800002 -13.148 2.9619999
-4.75 -13.065 2.6900001
-4.743 -13.045 2.4349999
-4.7490001 -13.069 2.1900001
-4.4990001 -12.38 1.84
-4.5149999 -12.432 1.612
-4.2969999 -11.832 1.312
-4.8049998 -13.089 2.9519999
-4.7750001 -13.006 2.681
-4.7670002 -12.985 2.427
-4.7709999 -13.002 2.181
-4.5500002 -12.399 1.844
-4.566 -12.451 1.6160001
-4.8249998 -13.015 2.9389999
-4.7989998 -12.947 2.6719999
-4.7919998 -12.926 2.4189999
-4.7940001 -12.938 2.1730001
-4.6009998 -12.419 1.849
-4.618 -12.47 1.6210001
-4.8499999 -12.959 2.9300001
-4.8249998 -12.891 2.6630001
-4.8140001 -12.863 2.4100001
-4.8150001 -12.872 2.164
-4.6529999 -12.437 1.854
-4.671 -12.493 1.626
-4.8699999 -12.889 2.918
-4.849 -12.832 2.654
-4.8379998 -12.803 2.401
-4.8410001 -12.819 2.158
-4.704 -12.456 1.859
-4.7199998 -12.504 1.6289999
-4.658 -12.339 1.375
-4.895 -12.833 2.9089999
-4.8720002 -12.773 2.645
-4.8600001 -12.74 2.392
-4.8629999 -12.756 2.1500001
-4.7550001 -12.471 1.864
-4.7319999 -12.419 1.62
-4.6810002 -12.283 1.37
-4.9169998 -12.77 2.898
-4.895 -12.713 2.6359999
-4.8829999 -12.681 2.3840001
-4.757 -12.361 2.086
-4.7080002 -12.234 1.831
-4.7059999 -12.233 1.597
-4.7020001 -12.224 1.365
-4.9419999 -12.715 2.8889999
-4.7350001 -12.182 2.529
-4.7220001 -12.148 2.2869999
-4.7249999 -12.162 2.0550001
-4.73 -12.175 1.824
-4.7280002 -12.178 1.592
-4.723 -12.164 1.36
-4.7309999 -12.054 2.98
-4.7350001 -12.069 2.7449999
-4.7389998 -12.079 2.5109999
-4.744 -12.092 2.279
-4.7470002 -12.106 2.0480001
-4.7490001 -12.112 1.817
-4.7490001 -12.118 1.586
-4.7449999 -12.109 1.3559999
-4.7449999 -11.972 3.4489999
-4.7490001 -11.989 3.2079999
-4.756 -12.007 2.9719999
-4.7579999 -12.018 2.737
-4.7589998 -12.02 2.5020001
-4.7639999 -12.033 2.2709999
-4.7670002 -12.047 2.04
-4.77 -12.053 1.8099999
-4.7709999 -12.063 1.581
-4.77 -12.061 1.352
-4.77 -11.925 3.4389999
-4.7709999 -11.934 3.198
-4.777 -11.948 2.961
-4.7779999 -11.959 2.727
-4.7810001 -11.965 2.493
-4.7859998 -11.978 2.263
-4.789 -11.992 2.033
-4.7909999 -11.997 1.804
-4.7930002 -12.007 1.576
-4.743 -11.883 1.334
-4.79 -11.867 3.427
-4.7919998 -11.879 3.187
-4.7979999 -11.893 2.9519999
-4.8000002 -11.904 2.7179999
-4.802 -11.91 2.4849999
-4.803 -11.912 2.253
-4.8109999 -11.937 2.027
-4.8130002 -11.942 1.798
-4.8130002 -11.948 1.5700001
-4.6989999 -11.665 1.311
-4.8109999 -11.812 3.4159999
-4.8119998 -11.821 3.1760001
-4.816 -11.831 2.9400001
-4.8210001 -11.849 2.7090001
-4.8249998 -11.859 2.477
-4.8270001 -11.864 2.247
-4.829 -11.874 2.0179999
-4.7199998 -11.607 1.75
-4.723 -11.62 1.529
-4.7309999 -11.639 1.3099999
-4.8319998 -11.758 3.404
-4.8330002 -11.766 3.165
-4.8400002 -11.784 2.9319999
-4.8400002 -11.79 2.6989999
-4.8429999 -11.796 2.467
-4.7360001 -11.535 2.188
-4.743 -11.559 1.967
-4.7490001 -11.574 1.747
-4.7490001 -11.579 1.525
-4.7509999 -11.584 1.3049999
-4.8540001 -11.707 3.3940001
-4.855 -11.715 3.155
-4.8590002 -11.725 2.921
-4.7459998 -11.457 2.6259999
-4.7579999 -11.487 2.4059999
-4.7639999 -11.502 2.184
-4.7659998 -11.511 1.962
-4.7670002 -11.515 1.74
-4.77 -11.528 1.521
-4.7719998 -11.532 1.301
-4.8709998 -11.645 3.3800001
-4.7620001 -11.388 3.0710001
-4.776 -11.422 2.849
-4.777 -11.431 2.6229999
-4.7820001 -11.443 2.4000001
-4.7839999 -11.447 2.177
-4.79 -11.467 1.957
-4.7880001 -11.464 1.735
-4.7870002 -11.465 1.5140001
-4.7880001 -11.469 1.296
-4.8930001 -11.594 3.3699999
-4.7930002 -11.363 3.0680001
-4.796 -11.371 2.8399999
-4.7979999 -11.38 2.615
-4.8039999 -11.395 2.3929999
-4.803 -11.392 2.1689999
-4.8010001 -11.393 1.947
-4.8039999 -11.401 1.728
-4.8060002 -11.41 1.5089999
-4.8099999 -11.421 1.2920001
-4.9130001 -11.54 3.359
-4.8130002 -11.312 3.059
-4.8200002 -11.327 2.8329999
-4.8150001 -11.322 2.605
-4.8179998 -11.33 2.382
-4.8200002 -11.333 2.161
-4.8210001 -11.342 1.941
-4.8260002 -11.353 1.723
-4.835 -11.38 1.507
-4.8400002 -11.391 1.29
-4.934 -11.489 3.348
-4.8319998 -11.257 3.0480001
-4.829 -11.251 2.8180001
-4.8319998 -11.263 2.595
-4.8390002 -11.278 2.375
-4.8429999 -11.289 2.155
-4.8520002 -11.316 1.939
-4.8540001 -11.32 1.72
-4.8569999 -11.332 1.503
-4.862 -11.343 1.2869999
-4.9530001 -11.434 3.3369999
-4.8470001 -11.196 3.0350001
-4.8540001 -11.211 2.812
-4.8600001 -11.23 2.5910001
-4.868 -11.249 2.372
-4.869 -11.252 2.151
-4.875 -11.271 1.934
-4.8769999 -11.275 1.716
-4.8779998 -11.284 1.498
-4.8779998 -11.284 1.2819999
-4.973 -11.383 3.3269999
-4.8730001 -11.159 3.03
-4.8829999 -11.181 2.8080001
-4.8860002 -11.193 2.586
-4.8920002 -11.208 2.3659999
-4.8920002 -11.208 2.1459999
-4.8959999 -11.224 1.928
-4.8920002 -11.213 1.7079999
-4.9039998 -11.246 1.495
-4.9190001 -11.28 1.283
-4.9980001 -11.343 3.319
-4.8990002 -11.122 3.0239999
-4.9050002 -11.137 2.8010001
-4.9070001 -11.146 2.579
-4.9099998 -11.153 2.358
-4.9070001 -11.146 2.1370001
-4.921 -11.183 1.924
-4.9330001 -11.212 1.711
-4.967 -11.293 1.5039999
-4.9879999 -11.341 1.2920001
-4.9229999 -11.082 3.017
-4.9239998 -11.086 2.7920001
-4.9190001 -11.08 2.5669999
-4.9380002 -11.123 2.355
-4.9499998 -11.148 2.1400001
-4.9809999 -11.225 1.934
-4.9699998 -11.2 1.711
-4.9320002 -11.01 3.0020001
-4.9510002 -11.053 2.7869999
-4.9640002 -11.086 2.572
-4.9970002 -11.161 2.3659999
-4.973 -11.009 3.006
-3.3840001 -3.1059999 -0.16
-3.421 -3.1010001 -0.161
-3.4430001 -3.1010001 -0.161
-3.4549999 -3.0929999 -0.162
-3.471 -3.0869999 -0.162
-3.4749999 -3.0710001 -0.162
-3.487 -3.063 -0.162
-3.503 -3.0569999 -0.162
-3.5250001 -3.056 -0.163
-3.546 -3.056 -0.163
-3.5680001 -3.0550001 -0.164
-3.5929999 -3.0569999 -0.164
-3.2060001 -2.7290001 -0.22
-3.612 -3.053 -0.16500001
-3.2149999 -2.7190001 -0.22
-3.6300001 -3.049 -0.16500001
-3.223 -2.7090001 -0.22
-3.652 -3.0480001 -0.16599999
-3.2260001 -2.6930001 -0.22
-3.674 -3.0469999 -0.16599999
-3.237 -2.6860001 -0.22
-3.6960001 -3.046 -0.167
-3.2460001 -2.6760001 -0.22
-3.7179999 -3.0439999 -0.167
-3.26 -2.6700001 -0.22
-3.74 -3.0420001 -0.168
-3.2720001 -2.6630001 -0.221
-3.7650001 -3.043 -0.169
-3.299 -2.6670001 -0.222
-3.7809999 -3.036 -0.169
-3.326 -2.6719999 -0.223
-3.812 -3.0420001 -0.17
-3.3399999 -2.6670001 -0.22400001
-3.8369999 -3.0420001 -0.171
-3.3640001 -2.668 -0.22499999
-3.8499999 -3.033 -0.171
-3.3759999 -2.6600001 -0.22499999
-3.878 -3.036 -0.17200001
-3.3970001 -2.6600001 -0.226
-3.9070001 -3.0380001 -0.17200001
-3.421 -2.661 -0.227
-3.9289999 -3.036 -0.17299999
-3.4360001 -2.655 -0.227
-3.954 -3.0350001 -0.17399999
-3.457 -2.654 -0.228
-3.98 -3.0350001 -0.17399999
-3.471 -2.648 -0.228
-4.0019999 -3.0320001 -0.175
-3.4920001 -2.6470001 -0.229
-4.0310001 -3.0339999 -0.176
-3.513 -2.6459999 -0.23
-4.0500002 -3.029 -0.176
-3.5280001 -2.6389999 -0.23
-4.079 -3.03 -0.177
-3.552 -2.6400001 -0.23100001
-4.1040001 -3.029 -0.178
-3.5669999 -2.6340001 -0.23199999
-4.1329999 -3.03 -0.17900001
-3.598 -2.6389999 -0.233
-4.1550002 -3.027 -0.17900001
-3.609 -2.6300001 -0.234
-4.1810002 -3.0250001 -0.18000001
-3.6370001 -2.6329999 -0.235
-4.204 -3.0220001 -0.18000001
-3.655 -2.628 -0.235
-4.2290001 -3.02 -0.18099999
-3.6659999 -2.619 -0.236
-4.2620001 -3.023 -0.182
-3.694 -2.6210001 -0.237
-4.2909999 -3.023 -0.183
-3.7060001 -2.612 -0.237
-3.339 -2.355 -0.285
-4.3130002 -3.0190001 -0.183
-3.734 -2.6140001 -0.23800001
-3.3499999 -2.3469999 -0.285
-4.336 -3.0150001 -0.184
-3.7479999 -2.6070001 -0.23899999
-3.3570001 -2.336 -0.285
-4.3649998 -3.0150001 -0.185
-3.773 -2.6070001 -0.23999999
-3.368 -2.3280001 -0.285
-4.3940001 -3.0139999 -0.186
-3.7980001 -2.6059999 -0.241
-3.375 -2.3169999 -0.285
-4.4229999 -3.0139999 -0.186
-3.822 -2.605 -0.242
-3.3859999 -2.309 -0.28600001
-4.4489999 -3.0109999 -0.18700001
-3.8440001 -2.602 -0.243
-3.3959999 -2.3 -0.28600001
-4.4759998 -3.0090001 -0.18799999
-3.868 -2.6010001 -0.244
-3.4200001 -2.3010001 -0.287
-4.5019999 -3.006 -0.189
-3.8859999 -2.596 -0.244
-3.437 -2.2969999 -0.28799999
-4.5310001 -3.0050001 -0.189
-3.911 -2.595 -0.245
-3.454 -2.293 -0.289
-4.5669999 -3.0079999 -0.19
-3.9289999 -2.589 -0.24600001
-3.4719999 -2.2880001 -0.28999999
-4.5929999 -3.0050001 -0.191
-3.9579999 -2.5899999 -0.24699999
-3.4920001 -2.286 -0.29100001
-4.6230001 -3.003 -0.192
-3.9760001 -2.5840001 -0.248
-3.5090001 -2.2820001 -0.292
-4.6560001 -3.0039999 -0.193
-4.0040002 -2.5840001 -0.249
-3.527 -2.277 -0.29300001
-4.6750002 -2.9960001 -0.193
-4.0250001 -2.5799999 -0.25
-3.5439999 -2.2720001 -0.29300001
-4.7119999 -2.9979999 -0.19499999
-4.0440001 -2.5739999 -0.25099999
-3.5680001 -2.2720001 -0.29499999
-4.7410002 -2.9960001 -0.19499999
-4.0749998 -2.576 -0.252
-3.592 -2.2709999 -0.296
-4.7709999 -2.994 -0.19599999
-4.0939999 -2.5699999 -0.25299999
-3.6059999 -2.2639999 -0.29699999
-4.8039999 -2.994 -0.197
-4.1220002 -2.5699999 -0.25400001
-3.6259999 -2.2620001 -0.29800001
-4.8369999 -2.993 -0.198
-4.1500001 -2.569 -0.255
-3.6429999 -2.256 -0.29899999
-4.8670001 -2.9909999 -0.199
-4.1690001 -2.563 -0.25600001
-3.661 -2.2509999 -0.30000001
-4.8969998 -2.9879999 -0.2
-4.197 -2.562 -0.257
-3.681 -2.2479999 -0.301
-4.934 -2.9890001 -0.20100001
-4.2220001 -2.559 -0.25799999
-3.6949999 -2.2409999 -0.301
-4.9569998 -2.9820001 -0.20100001
-4.2470002 -2.556 -0.259
-3.7190001 -2.2390001 -0.303
-4.994 -2.983 -0.20299999
-4.2789998 -2.5569999 -0.26100001
-3.744 -2.2379999 -0.30399999
-4.3010001 -2.552 -0.26199999
-3.7679999 -2.2360001 -0.30500001
-4.3330002 -2.552 -0.26300001
-3.7820001 -2.2279999 -0.30599999
-4.3520002 -2.5450001 -0.264
-3.802 -2.2249999 -0.30700001
-4.3839998 -2.5450001 -0.26499999
-3.823 -2.221 -0.308
4.803 -2.9879999 1.515
4.7940001 -3.003 1.515
4.757 -2.9790001 1.397
4.7810001 -3.016 1.5140001
4.7220001 -2.977 1.3890001
4.7420001 -2.9890001 1.29
4.7979999 -3.0469999 1.522
4.7160001 -2.994 1.39
4.6859999 -2.9749999 1.278
4.6719999 -2.9649999 1.1720001
4.7379999 -3.007 1.086
4.7129998 -3.013 1.392
4.6539998 -2.9749999 1.271
4.6529999 -2.973 1.169
4.7220001 -3.0179999 1.084
4.7940001 -3.063 0.99800003
4.71 -3.0320001 1.3940001
4.664 -3.0020001 1.277
4.6399999 -2.9860001 1.168
4.6989999 -3.0239999 1.081
4.7709999 -3.0699999 0.995
4.7849998 -3.0780001 0.89600003
4.8010001 -3.0880001 0.79699999
4.704 -3.049 1.395
4.6609998 -3.0209999 1.278
4.6370001 -3.0050001 1.17
4.7129998 -3.0539999 1.087
4.7410002 -3.072 0.991
4.7659998 -3.0869999 0.89399999
4.7880001 -3.1010001 0.79699999
4.7930002 -3.1029999 0.69599998
4.7360001 -3.0910001 1.4069999
4.652 -3.036 1.278
4.631 -3.0209999 1.171
4.7069998 -3.0710001 1.087
4.7649999 -3.108 0.99800003
4.7659998 -3.108 0.89600003
4.7719998 -3.112 0.796
4.763 -3.105 0.69300002
4.789 -3.122 0.59600002
4.8540001 -3.164 0.50199997
4.8330002 -3.1760001 1.439
4.652 -3.0569999 1.281
4.6279998 -3.04 1.173
4.71 -3.0940001 1.09
4.7480001 -3.119 0.99699998
4.7729998 -3.1340001 0.89899999
4.7690001 -3.131 0.79699999
4.757 -3.122 0.69300002
4.7659998 -3.128 0.59399998
4.8270001 -3.1689999 0.50099999
4.8579998 -3.187 0.40200001
4.8330002 -3.198 1.442
4.6620002 -3.0840001 1.2869999
4.6279998 -3.0610001 1.175
4.763 -3.1500001 1.105
4.7519999 -3.1429999 1
4.776 -3.158 0.90200001
4.7779999 -3.1589999 0.80000001
4.7540002 -3.142 0.69400001
4.756 -3.1429999 0.59399998
4.8070002 -3.177 0.5
4.8179998 -3.1830001 0.40000001
4.8530002 -3.2049999 0.301
4.848 -3.2 0.2
4.855 -3.234 1.452
4.6620002 -3.1059999 1.289
4.664 -3.1059999 1.187
4.7459998 -3.161 1.103
4.7880001 -3.188 1.0089999
4.789 -3.188 0.90600002
4.8109999 -3.2030001 0.80699998
4.77 -3.174 0.69800001
4.7600002 -3.1670001 0.59600002
4.8169999 -3.2049999 0.50199997
4.8039999 -3.1960001 0.40000001
4.8130002 -3.2 0.30000001
4.8340001 -3.2130001 0.2
4.8559999 -3.2279999 0.1
4.8070002 -3.224 1.332
4.6869998 -3.142 1.1950001
4.691 -3.145 1.0930001
4.756 -3.1860001 0.597
4.8340001 -3.2379999 0.505
4.8039999 -3.217 0.40000001
4.803 -3.2160001 0.30000001
4.8169999 -3.224 0.2
4.8429999 -3.2409999 0.1
4.7969999 -3.2390001 1.332
4.677 -3.1570001 1.1950001
4.6350002 -3.1289999 1.082
4.7859998 -3.2279999 0.602
4.8099999 -3.2420001 0.301
4.8210001 -3.2479999 0.2
4.836 -3.2579999 0.1
4.7969999 -3.2609999 1.335
4.7290001 -3.214 1.211
4.6220002 -3.141 1.081
4.862 -3.2980001 0.101
4.7859998 -3.2750001 1.228
4.7839999 -3.273 1.122
4.961 -3.388 0.103
4.848 -3.339 1.1390001
1.419 -2.8440001 0.11
1.513 -3.0309999 -0.059
1.403 -2.836 0.164
1.406 -2.8410001 0.109
1.4069999 -2.842 0.054000001
1.455 -2.9389999 -0
1.421 -2.8710001 -0.056000002
1.404 -2.862 0.16500001
1.408 -2.8670001 0.11
1.387 -2.825 0.054000001
1.4 -2.8510001 -0
1.402 -2.8540001 -0.055
1.397 -2.8699999 0.16500001
1.399 -2.872 0.11
1.391 -2.855 -0
1.391 -2.855 -0.055
1.385 -2.8670001 0.16500001
1.383 -2.862 0.11
1.378 -2.852 0.054000001
1.381 -2.8559999 -0
1.38 -2.855 -0.055
1.374 -2.868 0.16500001
1.374 -2.8659999 0.11
1.364 -2.846 0.054000001
1.368 -2.8529999 -0
1.3710001 -2.8599999 -0.055
1.3609999 -2.865 0.164
1.36 -2.859 0.109
1.355 -2.8499999 0.054000001
1.357 -2.8540001 -0
1.359 -2.8570001 -0.055
1.351 -2.865 0.164
1.352 -2.8670001 0.109
1.344 -2.8499999 0.054000001
1.35 -2.8610001 -0
1.352 -2.865 -0.055
1.349 -2.8840001 0.16500001
1.3430001 -2.8710001 0.109
1.339 -2.862 0.054000001
1.345 -2.8729999 -0
1.3430001 -2.869 -0.055
1.336 -2.8789999 0.109
1.33 -2.8659999 0.054000001
1.336 -2.8770001 -0
1.335 -2.8770001 -0.055
1.33 -2.891 0.11
1.33 -2.8889999 -0
1.33 -2.888 -0.055
1.326 -2.904 -0
1.327 -2.9070001 -0.056000002
1.323 -2.9219999 -0.056000002
1.3559999 -3.0209999 -0.057999998
4.8299999 -14.236 1.832
4.776 -14.225 1.829
4.7259998 -14.224 1.827
4.5149999 -14.181 1.814
4.4629998 -14.172 1.811
4.4130001 -14.167 1.808
4.3600001 -14.154 1.8049999
4.3200002 -14.183 1.807
4.277 -14.2 1.808
4.2090001 -14.138 1.798
4.1739998 -14.181 1.802
4.1199999 -14.164 1.798
4.0679998 -14.15 1.794
4.0229998 -14.159 1.794
3.974 -14.156 1.7920001
3.9189999 -14.13 1.7869999
3.8640001 -14.104 1.7819999
3.8150001 -14.101 1.78
3.7690001 -14.105 1.779
3.727 -14.125 1.78
3.6730001 -14.102 1.776
3.6240001 -14.094 1.774
3.5799999 -14.105 1.774
3.5409999 -14.139 1.777
3.483 -14.097 1.77
3.438 -14.104 1.7690001
3.3929999 -14.11 1.7690001
3.348 -14.117 1.768
3.2880001 -14.062 1.76
3.2420001 -14.064 1.7589999
3.191 -14.047 1.756
3.1400001 -14.023 1.751
3.0940001 -14.025 1.75
3.043 -14.003 1.747
2.9960001 -14.001 1.745
2.951 -14.003 1.744
2.898 -13.969 1.739
2.852 -13.966 1.737
2.8010001 -13.944 1.733
2.7550001 -13.937 1.732
2.707 -13.926 1.729
2.6589999 -13.911 1.726
2.612 -13.904 1.724
2.5599999 -13.865 1.7180001
2.5150001 -13.866 1.7180001
2.464 -13.834 1.7130001
2.418 -13.826 1.711
2.3729999 -13.822 1.709
2.325 -13.806 1.706
2.279 -13.798 1.704
-1.576 -4.1020002 0.228
-1.6 -4.1669998 0.077
-1.5930001 -4.1090002 0.075999998
-1.601 -4.0910001 0.152
-1.6 -4.0890002 0.075000003
-1.6160001 -4.0900002 0.228
-1.612 -4.0830002 0.15099999
-1.61 -4.0770001 0.075000003
-1.623 -4.0700002 0.227
-1.6210001 -4.066 0.15099999
-1.62 -4.0640001 0.075000003
-1.641 -4.0760002 0.30399999
-1.633 -4.0580001 0.227
-1.633 -4.0609999 0.15099999
-1.631 -4.0560002 0.075000003
-1.651 -4.0630002 0.30399999
-1.643 -4.0450001 0.226
-1.645 -4.052 0.15099999
-1.645 -4.0539999 0.075000003
-1.66 -4.0500002 0.303
-1.658 -4.0479999 0.227
-1.6569999 -4.0469999 0.15099999
-1.658 -4.0489998 0.075000003
-1.673 -4.0450001 0.303
-1.673 -4.046 0.227
-1.6720001 -4.046 0.15099999
-1.6720001 -4.0469999 0.075000003
-1.687 -4.0440001 0.303
-1.687 -4.0440001 0.227
-1.689 -4.0510001 0.15099999
-1.691 -4.0570002 0.075000003
-1.7 -4.039 0.227
-1.709 -4.0630002 0.075999998
-1.776 -4.1859999 0.078000002
2.395 -10.1 1.082
2.3659999 -10.119 1.0829999
2.3340001 -10.126 1.0829999
2.3010001 -10.13 1.0829999
2.2709999 -10.145 1.084
2.24 -10.155 1.084
2.207 -10.159 1.084
2.1730001 -10.154 1.0829999
2.1429999 -10.168 1.0829999
2.108 -10.163 1.082
2.0669999 -10.123 1.077
2.0320001 -10.114 1.076
2.003 -10.136 1.077
1.97 -10.134 1.076
1.937 -10.133 1.076
1.9 -10.111 1.073
1.8660001 -10.109 1.072
1.839 -10.139 1.074
1.8049999 -10.133 1.073
1.772 -10.131 1.072
1.739 -10.132 1.072
1.707 -10.138 1.072
1.674 -10.135 1.071
1.64 -10.128 1.0700001
1.605 -10.11 1.067
-4.8930001 -10.662 1.847
-4.901 -10.588 2.2579999
-4.902 -10.59 2.0469999
-4.908 -10.511 2.6700001
-4.915 -10.532 2.461
-4.9250002 -10.551 2.253
-4.9320002 -10.568 2.046
-4.9289999 -10.469 2.8789999
-4.9349999 -10.482 2.6659999
-4.9419999 -10.502 2.4579999
-4.954 -10.529 2.2520001
-4.9640002 -10.548 2.0450001
-4.9549999 -10.44 2.875
-4.9660001 -10.463 2.665
-4.973 -10.483 2.457
-4.9860001 -10.51 2.2509999
-4.993 -10.526 2.0439999
-4.9879999 -10.424 2.875
-4.9949999 -10.44 2.664
-4.1209998 -14.507 4.039
-4.1500001 -14.434 4.0219998
-4.177 -14.358 4.0040002
-4.2059999 -14.289 3.9890001
-4.2080002 -14.307 3.711
-4.2329998 -14.217 3.9719999
-4.2340002 -14.231 3.694
-4.263 -14.155 3.9590001
-4.2709999 -14.191 3.687
-4.2950001 -14.101 3.948
-4.296 -14.115 3.671
-4.322 -14.032 3.9319999
-4.3260002 -14.053 3.658
-4.349 -13.963 3.9159999
-4.3530002 -13.984 3.6440001
-4.388 -13.935 3.9119999
-4.402 -13.988 3.6489999
-4.447 -13.969 3.9260001
-0.95599997 -6.0539999 0.42399999
-0.97399998 -6.039 0.52999997
-0.972 -6.0359998 0.42300001
-0.99400002 -6.0419998 0.63800001
-0.99000001 -6.02 0.52899998
-0.98900002 -6.0209999 0.42199999
-1.011 -6.027 0.63700002
-1.008 -6.0089998 0.528
-1.008 -6.0180001 0.42199999
-1.029 -6.02 0.63700002
-1.028 -6.0139999 0.52899998
-1.029 -6.026 0.42300001
-1.049 -6.0219998 0.52999997
-1.048 -6.0229998 0.42300001
-1.068 -6.0190001 0.52999997
-1.0700001 -6.039 0.42500001
1.9400001 -5.1750002 0.38299999
1.914 -5.1550002 0.38100001
1.895 -5.1570001 0.57300001
1.89 -5.1430001 0.47499999
1.895 -5.1529999 0.38
1.878 -5.1589999 0.57200003
1.874 -5.1490002 0.47499999
1.878 -5.1560001 0.38
1.862 -5.165 0.57200003
1.857 -5.151 0.47499999
1.863 -5.165 0.38
1.848 -5.1789999 0.477
1.846 -5.171 0.38
1.8329999 -5.184 0.38100001
1.819 -5.198 0.38100001
-2.7980001 -11.479 3.164
-2.839 -11.489 3.1689999
-2.8829999 -11.51 3.178
-2.925 -11.528 3.1849999
-2.9679999 -11.544 3.1919999
-3.01 -11.554 3.197
-3.052 -11.567 3.204
-3.096 -11.587 3.2119999
-3.1389999 -11.603 3.2190001
-3.1819999 -11.616 3.2249999
-3.2260001 -11.632 3.233
-3.27 -11.648 3.24
-0.42699999 -7.5869999 0.792
-0.44999999 -7.5780001 0.92500001
-0.449 -7.5619998 0.79000002
-0.44999999 -7.5700002 0.65799999
-0.47400001 -7.573 0.92500001
-0.47299999 -7.5640001 0.79000002
-0.47299999 -7.5650001 0.65700001
-0.498 -7.5780001 0.792
-0.498 -7.5830002 0.65899998
-0.523 -7.5929999 0.66000003
2.326 -6.5830002 0.72799999
2.3210001 -6.5679998 0.60399997
2.299 -6.572 0.72600001
2.296 -6.5640001 0.60299999
2.276 -6.5710001 0.72500002
2.2739999 -6.5669999 0.60299999
2.2590001 -6.5900002 0.72600001
2.2550001 -6.5780001 0.60299999
2.2409999 -6.6040001 0.60500002
0.32699999 -9.3710003 0.97799999
0.29699999 -9.342 1.1390001
0.29699999 -9.3369999 0.97399998
0.26699999 -9.3269997 1.137
0.26699999 -9.3260002 0.97299999
0.23800001 -9.3240004 1.137
0.23800001 -9.3219995 0.972
0.20900001 -9.3450003 1.1390001
0.20900001 -9.3389997 0.97399998
2.8039999 -8.4379997 0.92699999
2.7750001 -8.4420004 1.0829999
2.7709999 -8.4280005 0.92500001
2.744 -8.4350004 1.081
2.7420001 -8.4289999 0.92400002
2.7219999 -8.4589996 1.0829999
2.72 -8.4530001 0.926
2.6989999 -8.4770002 0.92699999
-4.8239999 -3.6059999 -0.105
-4.8000002 -3.5650001 -0.104
-4.8150001 -3.552 -0.104
-4.8390002 -3.546 -0.105
-4.8759999 -3.55 -0.105
-4.9060001 -3.549 -0.106
-4.9460001 -3.5539999 -0.106
-4.98 -3.5550001 -0.107
